659,659,659,658,658,657,657,657,657,655,655,654,654,654,654,654,654,654,655,655,655,654,654,655,655,655,655,655,656,656,656,656,656,656,656,656,656,656,655,655,655,655,655,655,655,654,654,654,654,654,654,654,654,654,654,654,654,654,654,654,654,653,653,653,652,652,652,652,652,652,652,652,652,652,652,652,652,652,653,653,653,654,654,654,654,654,655,657,657,657,659,659,659,659,660,660,660,661,661,660,660,659,659,659,659,657,657,656,656,656,654,654,653,653,652,652,652,650,650,650,650,650,650,650,650,649,648,648,647,647,646,645,645,643,643,643,642,642,641,640,640,639,639,639,639,639,639,639,639,639,639,639,639,639,639,639,639,639,639,639,639,639,639,639,638,638,638,638,638,638,637,637,637,637,637,637,636,636,635,635,635,635,635,635,635,635,634,634,634,634,634,633,633,633,633,633,633,633,633,632,632,632,632,632,632,631,631,631,631,631,631,631,631,631,631,631,631,630,630,630,629,629,629,629,629,629,629,629,629,628,628,628,628,628,626,626,626,626,626,625,625,625,624,624,624,624,624,623,623,623,624,624,624,624,624,624,624,623,623,623,622,622,622,622,622,622,622,622,622,622,622,622,622,622,622,622,622,622,622,622,622,622,621,621,621,621,621,620,620,620,619,619,619,619,619,619,619,619,619,619,619,619,619,619,619,619,619,619,618,618,617,617,617,617,617,617,617,617,617,617,617,617,617,617,616,616,616,616,616,616,616,616,616,616,616,616,616,616,616,616,616,616,616,616,616,616,616,616,616,616,616,616,616,616,616,616,616,616,616,616,616,616,616,616,616,616,615,615,615,615,615,615,614,614,614,614,614,614,614,613,613,613,613,614,614,614,614,614,614,614,614,614,613,613,613,613,612,612,612,612,612,611,611,611,611,612,612,612,611,611,612,611,611,611,610,610,610,609,609,608,608,608,607,607,606,605,605,604,604,603,602,602,601,601,600,599,599,599,598,598,598,598,598,598,598,598,598,598,597,597,597,596,596,596,599,599,599,599,599,599,599,599,599,599,599,599,599,599,599,599,599,599,599,599,599,599,599,599,599,599,599,599,599,599,599,599,599,523,523,523,522,522,521,521,519,517,517,515,515,513,511,511,509,509,507,505,505,504,504,503,502,502,502,502,501,501,501,501,501,501,501,501,501,502,502,502,502,503,503,504,504,504,504,504,504,505,505,505,505,505,505,505,504,504,504,505,505,505,505,505,506,506,506,507,507,507,508,508,509,510,510,511,511,511,512,512,513,514,514,514,515,515,515,515,515,516,516,516,516,516,516,517,517,517,517,517,517,517,518,518,518,518,518,519,519,519,520,521,521,521,522,522,523,523,523,523,523,523,524,524,524,524,524,524,524,524,524,524,524,524,524,524,524,524,524,524,524,524,524,524,524,524,524,524,524,524,419,419,419,417
659,659,659,658,658,657,657,657,657,655,655,654,654,654,654,654,654,654,655,654,654,654,654,654,654,655,655,655,655,655,656,656,656,656,656,656,656,656,655,655,655,655,655,654,654,654,654,654,654,654,654,654,654,654,654,654,654,654,654,654,654,653,653,653,652,652,652,652,652,652,652,652,652,652,652,652,652,652,653,653,653,654,654,654,654,654,656,657,657,657,659,659,659,659,660,660,660,661,661,660,660,659,659,659,658,657,657,656,656,654,653,653,652,652,652,651,651,650,650,650,650,650,650,650,650,649,648,648,647,647,646,645,645,643,643,643,642,642,641,640,640,639,639,639,639,639,639,639,639,639,639,639,639,639,639,639,639,639,639,639,639,639,639,639,639,639,639,638,638,638,637,637,637,637,637,637,636,636,635,635,635,635,635,635,635,635,634,634,633,633,633,633,633,633,633,633,633,633,633,632,632,632,632,632,632,631,631,631,631,631,631,631,631,631,631,631,631,630,630,630,629,629,629,629,629,629,629,629,629,628,628,628,628,628,626,626,626,626,626,625,625,625,624,624,624,624,624,623,623,623,623,623,622,622,622,622,622,622,622,622,622,622,622,622,622,622,622,622,622,622,622,621,621,621,621,622,622,622,622,622,622,621,621,621,621,621,621,620,620,620,619,619,619,619,619,619,619,619,619,619,619,619,619,619,619,619,618,618,618,618,617,617,617,617,617,617,617,617,617,617,617,617,617,617,616,616,616,616,616,616,616,616,616,616,616,616,616,616,616,616,617,617,616,616,616,616,616,616,616,616,616,616,616,616,616,616,616,616,616,616,616,616,616,616,616,616,615,615,615,615,615,615,614,614,614,614,614,614,614,613,613,613,613,614,614,614,614,614,614,614,614,614,613,613,613,613,612,612,612,612,612,611,611,611,611,612,612,612,611,611,611,611,611,611,610,610,609,609,609,608,608,607,606,606,606,604,604,603,603,602,601,601,599,599,599,598,598,597,596,596,596,596,596,596,596,596,596,595,595,595,595,595,595,595,595,595,595,595,595,595,595,595,595,595,595,595,595,595,595,595,595,595,595,595,595,595,595,595,595,595,595,595,595,595,595,595,595,523,523,523,522,522,521,521,519,517,517,515,515,513,511,511,509,509,507,505,505,504,504,503,503,503,502,502,501,501,501,501,501,501,501,502,502,502,502,502,503,504,504,504,505,505,505,505,506,506,506,506,505,505,505,505,504,504,504,505,505,505,505,505,506,506,506,507,507,507,508,508,509,510,510,511,511,511,512,512,513,514,514,514,515,515,515,515,515,516,516,516,516,516,516,517,517,517,517,517,517,517,518,518,518,518,518,519,519,519,520,521,521,521,522,522,523,523,523,523,523,523,524,524,524,524,524,524,524,524,524,524,524,524,524,524,524,524,524,524,524,524,524,524,524,524,524,524,524,524,419,419,419,419
659,659,659,658,658,658,657,657,657,655,655,654,654,654,654,654,654,654,655,654,654,654,654,654,654,655,655,655,655,655,656,656,656,656,656,656,656,656,655,655,655,655,655,654,654,654,654,654,654,654,654,654,654,653,653,654,653,653,653,652,652,652,652,652,652,652,651,651,651,650,650,650,650,650,650,651,652,652,652,652,652,653,654,654,654,654,655,655,655,657,657,657,658,658,658,659,659,659,659,659,659,658,658,658,657,656,656,655,655,654,653,653,652,652,652,651,651,650,650,650,649,649,649,648,648,648,647,647,646,646,645,645,645,644,644,643,643,643,641,640,640,639,639,639,639,639,639,639,639,639,639,639,639,640,640,640,640,640,640,640,639,639,639,639,639,639,639,639,638,638,638,637,637,637,637,637,637,637,635,635,635,635,635,635,635,635,634,634,633,633,633,633,633,633,633,633,633,633,633,632,632,632,632,632,632,631,631,631,631,631,631,631,631,631,631,631,630,630,630,630,629,629,629,629,629,629,628,628,627,626,626,624,624,623,621,621,621,621,620,619,619,619,620,620,620,620,620,621,621,621,621,621,621,622,622,621,621,621,621,621,621,622,622,622,622,622,621,621,621,621,621,621,621,621,621,621,621,622,622,621,621,621,621,621,621,621,621,620,620,620,619,619,619,619,619,619,619,619,619,619,619,619,619,619,619,619,618,618,618,618,617,617,617,617,617,617,617,617,617,617,617,617,617,617,616,616,616,616,616,616,616,616,616,616,616,616,616,616,616,616,617,617,616,616,616,616,616,616,616,616,616,616,616,616,616,616,616,616,616,616,616,616,616,616,616,616,615,615,615,615,615,615,614,614,614,614,614,613,613,613,613,613,613,613,613,613,613,613,614,614,614,614,614,613,613,613,612,612,612,612,612,612,612,612,612,612,612,612,611,611,611,611,611,611,610,610,609,609,609,608,608,607,606,606,605,603,603,602,602,602,601,601,599,599,599,598,598,597,596,596,596,596,596,596,596,596,596,595,595,595,595,595,595,595,595,595,595,595,595,595,595,595,595,595,595,595,595,595,595,595,595,595,595,595,595,595,595,595,595,595,595,595,595,595,595,595,595,522,522,522,521,521,520,520,519,517,517,515,515,513,511,511,509,509,507,505,505,504,504,503,502,502,502,502,501,501,501,501,501,501,501,502,502,502,502,502,503,504,504,504,505,505,505,505,506,506,506,506,506,506,506,506,506,506,505,505,506,506,506,506,506,507,507,507,508,508,509,509,509,510,510,511,512,512,512,513,513,514,514,514,515,515,515,515,515,516,516,516,516,516,517,517,517,517,517,517,517,517,518,518,518,518,518,519,519,519,520,521,521,521,522,522,523,523,523,523,523,523,524,524,524,524,524,524,524,524,524,524,524,524,524,524,524,524,524,524,524,524,524,524,524,524,524,524,524,524,419,419,419,419
659,659,659,658,658,658,657,657,657,655,655,654,654,654,654,654,654,654,655,654,654,654,654,654,654,655,655,655,655,655,655,656,656,656,656,656,656,656,655,655,655,655,655,654,654,654,654,654,654,654,654,654,654,653,653,653,653,653,653,652,652,652,652,652,652,652,650,650,650,650,650,650,650,650,650,650,650,650,651,652,652,652,652,652,653,653,655,655,655,657,657,657,658,658,658,659,659,659,659,659,659,658,658,658,657,656,656,655,655,654,653,653,652,652,652,651,651,650,650,650,649,649,649,648,648,648,647,647,646,646,645,645,645,644,644,643,643,643,641,640,640,639,639,639,639,639,639,639,639,639,639,639,639,640,640,640,640,640,640,640,639,639,639,639,639,639,639,639,638,638,637,637,637,637,637,637,636,636,635,635,635,635,635,634,634,634,634,634,633,633,633,633,633,633,633,633,633,633,633,632,632,632,632,632,631,631,631,631,631,631,631,631,631,631,631,631,630,630,630,630,629,629,629,629,629,629,627,627,624,624,626,624,624,623,621,621,621,621,620,619,619,619,620,620,620,620,620,621,621,621,621,621,621,622,622,621,621,621,621,621,621,622,622,622,622,622,621,621,621,621,621,621,621,621,621,621,621,622,622,621,621,621,621,621,621,621,621,620,620,619,619,619,619,619,619,619,619,619,619,619,619,619,619,619,619,619,618,618,618,618,617,617,617,617,617,617,617,617,617,616,616,616,616,616,616,616,616,616,616,616,616,616,616,616,616,616,616,616,617,617,617,617,616,616,616,616,616,616,616,616,616,616,616,616,616,616,616,616,616,616,616,616,616,616,615,615,615,615,615,614,614,614,614,614,614,614,614,613,613,613,613,613,613,613,613,613,613,613,614,614,614,614,614,613,613,613,612,612,612,612,612,612,612,612,612,612,612,612,611,611,611,611,611,611,610,610,609,609,609,608,608,608,606,606,605,603,603,602,602,601,599,599,598,598,597,596,596,595,595,594,594,595,594,594,594,593,593,593,593,593,593,593,593,593,593,593,593,593,593,593,593,593,593,593,593,593,593,593,593,593,593,593,593,593,593,593,593,593,593,593,593,593,593,593,593,593,593,522,522,522,521,521,520,520,519,517,517,515,515,513,511,511,509,509,507,505,505,504,504,503,502,502,502,502,501,501,501,501,501,502,502,502,502,502,503,503,504,504,504,505,506,506,506,506,507,507,507,507,507,507,507,507,506,506,506,506,506,506,507,507,507,507,507,508,508,508,509,509,510,510,510,511,512,512,513,513,513,514,514,515,515,515,515,515,515,516,516,516,516,516,517,517,517,517,517,517,517,517,518,518,518,518,518,519,519,519,519,520,520,521,522,522,522,522,523,523,523,523,524,524,524,524,524,524,524,524,524,524,524,524,524,524,524,524,524,524,524,524,524,524,524,524,524,524,524,524,419,419,419,418
659,659,659,658,658,658,657,657,657,655,655,654,654,654,655,655,655,655,655,655,655,654,654,655,655,655,655,655,655,655,655,656,656,656,656,656,656,656,656,656,656,655,655,655,655,654,654,654,654,654,654,654,654,654,653,653,653,653,653,653,653,652,652,652,652,652,650,650,650,650,650,650,650,650,650,650,650,650,651,652,652,652,652,652,653,653,654,654,654,656,656,656,657,657,657,658,658,659,659,659,659,657,657,657,657,656,656,654,654,654,652,652,652,652,650,650,650,648,648,648,647,647,647,647,647,647,646,646,645,645,645,644,644,643,643,643,642,642,641,641,641,640,640,639,639,640,640,640,640,640,640,640,640,640,640,640,640,640,640,640,639,639,639,639,639,639,639,639,639,639,637,637,637,637,637,637,636,636,635,635,635,635,635,634,634,634,634,634,633,633,633,633,633,633,633,633,633,633,633,632,632,632,632,632,631,631,631,631,631,631,631,631,631,631,631,631,630,630,630,630,629,629,629,629,629,629,627,627,624,622,622,619,619,617,615,615,614,614,613,612,612,612,613,614,614,615,615,616,617,617,619,619,619,621,621,621,621,621,621,621,621,621,621,621,621,621,621,621,621,621,621,621,621,621,621,621,621,621,621,621,621,621,621,621,621,621,620,620,620,619,619,619,619,619,619,619,619,619,619,619,619,619,619,619,619,619,618,618,617,617,617,617,617,617,617,617,617,617,616,616,616,616,616,616,616,616,616,616,616,616,616,616,616,616,616,616,617,617,617,617,617,617,616,616,616,616,616,616,616,616,616,616,616,616,616,616,616,616,616,616,616,616,616,616,615,615,615,615,615,614,614,614,614,614,614,613,613,613,613,613,612,612,612,613,613,613,613,613,613,613,613,613,613,613,613,613,612,612,612,612,612,612,612,612,612,612,611,611,611,611,611,610,610,610,609,609,609,608,608,608,608,607,606,606,605,603,603,601,601,600,598,598,597,597,596,594,594,592,592,592,592,592,591,591,591,591,591,591,591,591,590,590,590,590,591,591,591,591,591,591,591,591,591,591,591,591,591,591,591,591,591,591,591,591,591,591,591,591,591,591,591,591,591,591,591,591,591,591,591,522,521,521,520,520,519,517,517,515,515,513,511,511,509,509,507,505,505,504,504,503,502,502,502,502,501,501,501,501,501,502,502,502,502,502,503,503,504,504,504,505,506,506,506,506,507,507,507,507,507,507,507,507,506,506,506,506,506,506,507,507,507,507,507,508,508,508,509,509,510,510,510,511,512,512,513,513,513,514,514,514,515,515,515,516,516,516,516,516,516,516,517,517,517,517,517,517,517,517,518,518,518,518,518,518,519,519,519,520,520,520,521,521,522,522,523,523,523,523,524,524,524,524,524,524,524,524,524,524,524,524,524,524,524,524,524,524,524,524,524,524,524,524,524,524,524,524,420,419,419,418
659,659,659,658,658,658,657,657,657,656,656,655,655,655,655,655,655,655,655,655,655,655,655,655,655,656,656,656,656,655,655,656,656,656,656,656,656,656,656,656,656,655,655,655,655,654,654,654,654,654,654,654,654,654,653,653,653,653,653,652,652,652,652,652,651,651,650,650,650,649,649,649,649,649,649,649,649,649,650,650,650,651,652,652,652,652,653,654,654,654,655,655,656,656,657,657,657,658,658,657,657,657,657,657,656,655,655,654,654,652,651,651,650,650,649,649,650,648,648,648,647,647,647,647,647,647,646,646,645,645,645,644,644,643,643,643,642,642,641,641,641,640,640,640,640,640,640,640,640,640,640,640,640,641,641,640,640,640,640,640,640,640,639,639,639,639,639,639,639,639,638,638,638,637,637,637,636,636,635,635,635,635,635,634,634,634,634,634,633,633,633,633,633,633,633,633,633,633,633,632,632,632,632,632,631,631,631,631,631,631,631,631,631,630,630,630,630,630,630,630,629,629,629,629,629,629,625,625,622,622,618,615,615,612,612,609,607,607,606,605,605,605,606,606,607,608,608,611,612,612,615,616,616,617,617,619,620,620,621,621,621,621,621,621,621,621,621,621,621,621,621,621,621,621,621,621,621,621,621,621,621,621,621,621,621,621,620,620,620,619,619,619,619,619,619,619,619,619,619,619,619,619,619,619,619,619,618,618,617,617,617,617,617,617,617,617,617,617,616,616,616,616,616,616,616,616,616,616,616,616,616,616,616,616,616,616,617,617,617,617,617,617,616,616,616,616,616,616,616,616,616,616,616,616,616,615,615,615,615,615,615,615,616,615,615,615,615,614,614,614,614,614,614,614,613,613,613,612,612,612,612,612,612,613,612,612,612,612,613,613,612,612,612,613,613,613,612,612,612,612,612,612,612,612,612,612,611,611,611,611,611,610,610,610,609,609,609,608,608,608,608,607,606,606,605,603,603,601,601,600,598,598,597,597,596,594,594,592,592,592,592,592,591,591,591,591,591,591,591,591,590,590,590,590,591,591,591,591,591,591,591,591,591,591,591,591,591,591,591,591,591,591,591,591,591,591,591,591,591,591,591,591,591,591,591,591,591,591,591,522,521,521,520,520,519,517,517,515,515,513,511,511,509,509,507,505,505,504,504,503,502,502,502,502,501,501,501,501,501,502,502,502,502,502,503,503,504,505,505,506,507,507,507,507,507,507,507,507,507,507,507,507,507,507,507,507,507,507,507,507,507,508,508,508,509,509,509,509,510,511,511,511,512,512,513,513,513,514,514,514,515,515,515,516,516,516,516,516,516,516,517,517,517,517,517,517,517,517,518,518,518,518,518,518,519,519,519,520,520,520,521,521,522,522,523,523,523,523,524,524,524,523,523,523,523,523,523,523,523,523,523,523,523,523,523,523,523,523,523,523,523,523,523,523,421,421,420,419,419,418
659,659,659,658,658,658,657,657,657,656,656,655,655,655,655,655,655,655,655,655,655,655,655,655,655,656,656,656,656,656,656,656,656,657,657,657,657,657,656,656,656,656,656,655,655,655,654,654,654,654,654,654,654,654,654,654,653,652,652,652,652,652,651,651,650,650,650,650,650,649,649,649,649,649,649,649,649,649,650,650,650,651,652,652,652,652,653,654,654,654,655,655,656,656,657,657,657,658,658,657,657,657,657,657,656,655,655,654,654,652,651,651,650,650,649,649,649,649,648,648,647,647,647,647,647,647,646,646,645,645,645,644,644,643,643,643,642,642,641,641,641,640,640,640,640,640,640,640,640,640,640,640,640,641,641,640,640,640,640,640,640,640,639,639,639,639,639,639,639,639,638,638,638,637,637,637,637,637,635,635,635,635,635,635,635,635,634,634,633,633,633,633,633,633,633,633,633,633,633,632,632,632,631,631,631,631,631,631,631,631,631,631,631,630,630,630,630,630,630,630,629,629,629,629,629,629,625,625,622,622,618,615,615,612,612,609,607,607,606,605,605,605,606,606,607,608,608,611,612,612,615,616,616,617,617,619,620,620,621,621,621,621,621,621,621,621,621,621,621,621,621,621,621,621,621,621,621,621,621,621,621,621,621,621,620,620,620,619,619,619,619,619,619,619,619,619,619,619,619,619,619,619,619,619,619,619,618,618,617,617,617,617,617,616,616,617,617,617,616,616,616,616,616,616,616,616,616,616,616,616,616,616,616,616,616,616,616,616,616,616,616,616,616,616,616,616,616,616,616,616,616,615,615,615,615,615,615,615,615,615,615,615,616,615,615,615,615,614,614,614,614,614,614,614,613,613,613,612,612,612,612,612,612,613,612,612,612,612,613,613,612,612,612,613,613,613,612,612,612,612,612,612,612,612,612,612,611,611,611,611,611,610,610,610,609,609,609,608,608,608,608,607,606,606,605,602,602,600,600,599,598,598,595,595,593,592,592,590,590,589,589,589,589,589,589,588,588,588,588,588,588,588,588,588,588,588,588,588,588,588,588,588,588,588,588,588,588,588,588,588,588,588,588,588,588,588,588,588,588,588,588,588,588,588,588,529,529,526,526,523,521,521,520,520,519,517,517,515,515,513,511,511,509,509,507,505,505,504,504,503,502,502,502,502,501,501,501,501,501,502,502,502,503,503,504,504,504,505,505,506,507,507,507,507,507,507,507,507,507,507,507,507,507,507,507,507,508,507,507,507,508,508,508,509,509,509,509,509,510,511,511,511,512,512,513,513,513,514,514,514,515,515,515,515,515,516,516,516,516,516,517,517,517,517,517,517,517,517,518,518,518,518,518,518,519,519,519,520,520,520,521,521,522,522,522,523,523,523,523,523,523,523,523,523,523,523,523,523,523,523,523,523,523,523,523,523,523,523,523,523,523,523,423,423,421,421,421,419,419,418
659,659,659,659,659,658,658,658,657,656,656,655,655,655,655,655,655,655,656,656,656,655,655,655,655,657,657,657,657,657,657,657,657,657,657,657,657,657,657,657,657,656,656,656,656,655,655,655,654,654,654,654,654,654,654,654,653,652,652,652,652,652,651,651,650,650,650,649,649,648,647,647,647,647,647,648,648,648,649,649,649,650,650,650,651,651,652,653,653,654,654,654,655,655,656,657,657,657,657,657,657,656,655,655,655,654,654,652,652,652,650,650,650,650,648,647,647,645,645,645,645,645,644,644,644,644,643,643,643,643,642,642,642,642,642,642,642,642,641,641,641,641,641,641,641,641,641,641,641,641,641,641,641,641,641,640,640,640,640,640,640,640,640,640,640,640,640,640,640,640,640,640,640,640,640,640,640,640,640,640,640,640,640,640,635,635,634,634,634,633,633,633,633,633,633,633,633,633,633,632,632,632,631,631,631,631,631,631,631,631,631,631,630,630,630,630,630,630,629,629,629,629,629,628,628,628,624,624,619,619,614,614,615,612,612,609,607,607,606,605,605,599,599,599,602,602,602,604,606,606,610,610,612,615,615,617,618,618,620,621,621,621,621,621,621,621,621,621,621,621,621,621,621,621,621,621,621,621,621,621,621,621,620,620,620,620,620,619,619,619,619,619,619,619,619,616,616,616,618,618,617,617,617,619,619,619,618,618,617,617,617,617,617,616,616,617,617,617,616,616,616,616,616,616,616,616,616,616,616,616,616,616,616,616,616,616,616,616,616,616,616,616,616,616,616,616,616,616,616,616,616,615,615,615,615,615,614,614,614,615,615,615,615,615,614,614,614,614,614,614,614,614,613,613,613,612,612,612,612,612,612,612,612,612,612,612,612,612,612,612,612,612,612,612,613,612,612,612,612,612,612,612,612,611,611,611,611,611,611,610,610,610,609,609,609,609,608,608,608,607,607,606,606,606,604,602,602,600,600,598,596,596,594,594,592,589,589,588,588,586,586,586,586,586,586,586,586,586,588,588,588,588,588,588,588,588,588,588,588,588,588,588,588,588,588,588,588,588,588,588,588,588,588,588,588,588,588,588,588,588,588,588,588,588,588,529,529,526,526,523,521,521,520,520,519,517,517,515,515,513,511,511,509,509,507,505,505,504,504,503,502,502,502,501,501,501,501,501,501,502,502,502,503,503,504,504,504,505,505,506,507,507,507,507,507,507,507,507,507,507,507,507,507,507,507,507,508,507,507,507,508,508,508,509,509,509,509,509,510,511,511,512,512,512,513,513,513,514,514,514,515,515,515,515,515,516,516,516,516,516,517,517,517,517,517,517,517,517,518,518,518,518,518,518,519,519,519,520,520,520,521,521,522,522,522,523,523,523,523,523,523,523,523,523,523,523,523,523,523,523,523,523,523,523,523,523,523,523,523,523,523,523,423,423,422,422,421,420,420,419
659,659,659,659,659,658,658,658,657,656,656,655,655,655,655,655,655,655,656,656,656,655,655,655,655,657,657,657,657,657,657,657,657,657,657,657,657,657,657,657,657,656,656,656,656,655,655,655,654,654,654,654,654,654,654,654,653,652,652,652,652,652,651,651,650,650,650,649,649,648,647,647,647,647,647,647,647,647,647,647,647,648,648,649,650,650,651,652,652,652,653,653,654,654,654,656,656,655,655,655,655,655,655,655,655,654,654,652,652,652,650,650,650,650,648,647,647,645,645,645,645,645,644,644,644,644,643,643,643,643,642,642,642,642,642,642,642,642,641,641,641,641,641,641,641,641,641,641,641,641,641,641,641,641,641,640,640,640,640,639,639,639,639,639,639,639,639,638,638,638,637,637,637,637,637,637,637,637,636,635,635,635,635,635,635,635,634,634,634,633,633,633,633,633,633,633,633,633,633,632,632,632,631,631,631,631,631,631,631,631,631,631,630,630,630,630,629,629,629,629,629,628,628,628,628,626,624,624,619,619,614,614,614,596,596,593,593,592,590,590,590,590,591,591,593,593,602,604,606,606,610,610,612,615,615,617,618,618,620,621,621,621,621,621,621,621,621,621,621,621,621,621,621,621,621,621,621,621,621,621,621,621,620,620,620,620,620,619,619,619,619,619,619,619,619,616,616,616,618,618,617,617,617,616,616,613,613,613,613,614,614,615,616,616,616,617,617,617,616,616,616,616,616,616,616,616,616,616,616,616,616,616,616,616,616,616,616,616,616,616,616,616,616,616,616,616,616,616,615,615,615,615,615,615,615,614,614,614,614,614,615,615,615,615,614,614,614,614,614,614,614,614,613,613,613,612,612,612,612,612,612,612,612,612,612,612,612,612,612,612,612,612,612,612,613,612,612,612,612,612,612,612,612,611,611,611,611,611,611,610,610,610,609,609,609,609,608,608,608,607,607,606,606,606,604,602,602,600,600,598,596,596,594,594,592,589,589,588,588,586,586,586,586,586,586,586,586,586,586,586,586,586,586,586,587,587,587,587,587,587,587,587,587,587,587,587,587,587,587,587,587,587,587,587,587,587,587,587,587,587,587,587,587,587,587,529,529,526,526,523,521,521,520,520,519,517,517,515,515,513,511,511,509,509,507,505,505,504,504,503,502,502,502,501,501,501,501,501,501,502,502,502,503,503,504,504,504,505,505,507,507,507,508,508,508,508,508,508,508,508,508,508,508,508,508,508,508,508,508,508,508,509,509,509,509,509,510,511,511,511,511,512,512,512,513,513,513,514,514,514,515,515,515,515,515,516,516,516,517,517,517,517,517,518,518,518,518,518,518,519,518,518,518,518,519,519,519,520,520,520,521,521,522,522,522,523,523,523,523,523,523,523,523,523,523,523,523,523,523,523,523,523,523,523,523,523,523,523,523,523,523,523,423,423,422,422,421,420,420,419
659,659,659,659,659,658,658,658,657,657,657,655,655,655,655,655,655,655,655,655,655,655,655,655,655,656,657,657,657,657,657,657,657,657,657,657,657,657,657,657,657,657,657,656,656,655,655,655,655,655,655,654,654,654,654,654,654,653,653,652,652,652,651,651,650,650,650,649,649,648,647,647,647,647,647,647,647,647,647,647,647,648,648,649,650,650,651,652,652,652,653,653,654,654,654,656,656,655,655,655,655,655,654,654,654,653,653,652,652,651,649,649,648,648,647,647,647,645,645,645,644,644,644,643,643,643,643,643,642,642,642,641,641,641,641,642,641,641,641,641,641,641,641,641,641,641,641,641,641,641,641,641,641,641,639,639,639,639,639,638,638,638,638,637,637,637,637,637,637,637,637,637,637,637,637,637,637,637,635,635,635,635,635,635,635,635,634,634,634,633,633,633,633,633,633,633,633,633,633,632,632,632,632,632,631,631,631,631,631,631,631,631,630,630,630,630,629,629,629,629,629,628,628,628,628,626,626,626,626,626,626,626,626,596,596,593,593,592,590,590,590,590,591,591,593,593,598,598,598,600,605,605,609,612,612,615,617,617,620,621,621,621,621,621,621,621,621,621,621,621,621,621,621,621,621,621,621,621,621,621,621,621,620,620,620,620,620,619,619,619,619,619,619,619,617,616,616,616,614,614,614,614,614,612,612,609,609,608,608,610,610,612,614,614,616,616,616,617,616,616,616,616,616,616,616,616,616,616,616,616,616,616,616,616,616,616,616,616,616,616,616,616,616,616,616,616,616,616,615,615,615,615,615,615,615,614,614,614,614,614,615,615,615,615,614,614,614,614,614,614,614,614,613,613,613,613,613,612,612,612,612,612,612,612,612,612,612,612,612,612,612,612,612,612,612,612,612,612,612,612,612,612,612,611,611,611,611,611,610,610,610,609,609,609,608,608,608,608,608,606,606,606,605,605,603,601,601,599,599,598,595,595,592,592,589,587,587,584,584,582,582,582,582,582,582,582,582,582,583,583,583,583,583,583,584,584,584,584,584,584,584,584,584,584,584,584,584,584,584,584,584,584,584,584,569,569,567,567,562,562,555,555,555,555,555,533,533,528,528,525,523,523,521,521,520,518,518,515,515,513,511,511,509,509,507,505,505,504,504,503,502,502,502,502,502,501,501,501,501,502,502,503,503,503,504,504,504,506,506,507,507,507,508,508,508,508,508,508,508,508,508,508,508,508,508,508,508,508,508,508,508,509,509,509,509,509,510,511,511,511,511,512,512,512,513,513,513,514,514,514,515,515,515,515,515,515,515,516,517,517,517,517,517,518,518,518,518,518,518,519,519,519,519,519,519,519,520,520,520,520,521,521,522,522,522,523,523,523,523,523,523,523,523,523,523,523,523,523,523,523,523,523,523,523,523,523,523,523,523,523,523,523,423,423,423,423,422,421,421,419
659,659,659,659,659,659,658,658,657,657,657,655,655,655,655,655,655,655,655,655,655,655,655,655,655,656,657,657,657,657,657,657,657,657,657,657,657,657,657,657,657,657,657,657,657,657,655,655,655,655,655,654,654,654,654,654,654,653,653,652,652,652,651,651,650,650,650,649,649,648,647,647,647,647,647,647,647,647,647,647,647,648,648,648,649,649,650,651,651,652,652,652,653,653,654,654,654,654,654,654,654,654,654,654,653,652,652,651,651,650,649,649,648,648,647,646,646,645,644,644,643,643,643,643,643,643,642,642,641,641,640,640,640,640,640,640,641,641,641,642,642,641,641,642,642,642,642,642,642,641,641,641,641,641,639,639,639,639,639,638,638,638,638,637,637,637,637,637,637,637,637,637,637,637,637,637,637,637,635,635,635,635,635,635,635,635,634,634,634,633,633,633,633,633,633,633,633,633,633,632,632,632,632,632,631,631,631,631,631,631,630,630,630,629,629,629,629,629,629,629,629,628,628,626,626,622,622,622,622,622,622,622,622,596,586,584,584,583,582,582,582,583,583,584,586,586,588,591,591,600,600,600,605,609,609,613,616,616,619,621,621,621,622,621,621,621,621,621,621,621,621,621,621,621,621,621,621,621,621,621,621,621,620,620,620,620,620,619,619,619,619,619,619,619,617,616,616,616,614,614,614,614,614,612,612,609,609,608,608,610,610,612,614,614,616,616,616,617,616,616,616,616,616,616,616,616,616,616,616,616,616,616,616,616,616,616,616,616,616,616,616,616,616,616,616,616,616,615,615,615,615,614,614,614,614,614,614,614,614,614,614,614,614,614,614,614,614,614,614,614,614,614,613,613,613,612,612,612,612,612,612,612,612,612,612,612,612,612,612,612,612,612,612,612,612,612,612,612,612,612,611,611,611,611,611,611,610,610,609,609,609,608,608,608,608,608,607,606,606,606,605,605,605,605,602,600,600,599,599,598,595,595,592,592,589,587,587,584,584,582,582,582,582,582,582,582,582,582,583,583,583,583,583,583,584,584,584,584,584,584,584,584,584,584,584,584,584,584,584,584,584,584,584,584,569,569,567,567,562,562,555,555,555,555,555,533,533,528,527,525,523,523,521,521,520,518,518,515,515,513,511,511,509,509,507,505,505,504,504,503,502,502,502,501,501,501,501,501,501,502,502,502,503,503,504,504,504,505,505,506,507,507,507,507,507,507,507,507,507,507,507,508,508,508,508,508,508,508,508,509,509,509,509,509,510,510,510,511,511,511,511,512,512,512,512,513,513,513,513,514,514,514,515,515,515,515,515,516,517,517,517,518,518,518,519,519,519,519,519,519,519,519,519,519,519,519,520,521,521,521,521,521,522,522,522,523,523,523,523,523,523,523,523,523,523,523,523,523,523,523,523,523,523,523,523,523,523,523,523,523,523,523,423,423,423,423,422,421,421,419
659,659,659,659,659,659,658,658,657,657,657,655,655,655,655,655,655,655,655,655,655,655,655,655,655,656,656,656,657,657,657,657,657,657,657,657,657,657,657,657,657,657,657,657,657,657,657,657,656,656,657,657,657,656,656,656,655,654,654,654,654,652,652,652,651,650,650,649,649,648,647,647,647,647,647,647,647,647,647,647,647,647,647,648,649,649,650,651,651,652,652,652,653,653,654,654,654,654,654,654,654,654,654,654,653,652,652,651,651,650,649,649,648,648,647,646,646,645,644,644,643,643,643,643,643,643,642,642,641,641,640,640,640,640,640,640,641,641,641,641,641,641,641,642,642,642,642,642,642,641,641,640,640,640,639,639,639,638,638,638,638,638,637,637,637,637,637,636,636,636,636,636,636,636,636,636,636,636,635,635,635,635,635,635,635,635,634,634,634,633,633,633,633,633,633,633,633,633,633,633,632,632,632,632,631,631,631,631,631,631,630,630,630,629,629,629,630,630,629,629,629,628,628,626,626,622,622,622,622,622,622,622,622,622,586,584,584,583,582,582,582,583,583,584,586,586,588,591,591,600,600,600,605,609,609,613,616,616,619,621,621,621,622,622,622,621,621,621,621,621,621,621,621,621,621,621,621,621,621,621,621,621,620,620,620,620,620,619,619,619,619,619,619,619,617,616,616,616,614,603,602,602,593,593,593,609,609,605,605,608,608,609,611,611,614,616,616,617,616,616,616,616,616,616,616,616,616,616,616,616,616,616,616,616,616,616,616,616,616,616,616,616,616,616,616,616,616,615,615,615,614,614,614,614,614,614,614,614,614,614,614,614,614,614,614,614,614,614,614,614,614,613,613,613,613,612,612,612,612,612,612,612,612,612,612,612,612,612,612,612,612,612,612,612,612,612,612,612,612,612,611,611,611,611,611,611,610,610,609,609,609,608,608,608,608,608,607,606,606,606,605,605,605,605,602,600,600,598,598,596,593,593,590,590,587,583,583,581,581,579,578,578,578,578,578,579,579,579,579,579,579,580,580,581,582,582,582,582,582,582,582,582,582,582,582,582,582,582,582,582,582,582,582,571,568,568,567,567,562,562,555,555,555,555,555,555,555,531,527,527,524,524,522,522,520,518,518,515,515,513,511,511,509,509,507,505,505,504,504,503,502,502,502,501,501,501,502,501,501,502,502,502,503,503,504,504,504,505,505,506,507,507,507,507,507,507,507,507,507,507,507,508,508,508,508,508,508,508,508,509,509,509,509,509,510,510,510,511,511,511,511,512,512,512,512,513,513,513,513,514,514,514,515,515,515,515,515,516,517,517,517,518,518,518,519,519,519,519,519,519,519,519,519,519,519,519,520,521,521,521,521,521,522,522,522,523,523,523,523,523,523,523,523,523,523,523,523,523,523,523,523,523,523,523,523,523,523,427,427,426,426,425,425,425,424,424,423,421,421,420
659,659,659,659,659,659,659,659,657,656,656,656,656,655,655,655,655,655,655,655,655,655,655,655,655,656,656,656,657,657,657,657,657,657,657,657,657,657,657,657,657,657,657,657,657,657,657,657,657,657,657,657,657,657,657,657,656,655,655,654,654,653,652,652,651,650,650,649,649,648,647,647,647,647,647,647,647,647,647,647,647,647,647,648,649,649,650,651,651,651,652,652,653,653,653,654,654,654,654,654,654,654,653,653,652,652,652,650,650,650,648,648,648,648,647,645,645,645,643,643,643,643,642,641,641,641,641,641,639,639,639,639,639,639,639,639,639,640,640,640,641,641,641,642,642,642,642,642,642,641,641,640,640,640,639,639,639,638,638,637,637,637,637,636,636,636,636,635,635,635,635,635,635,635,636,636,636,636,635,635,635,635,635,635,635,635,635,634,634,634,634,633,633,633,633,633,633,633,633,633,632,632,632,632,632,631,631,631,631,631,630,630,630,629,629,629,630,630,629,629,629,628,628,626,626,626,626,626,626,626,626,626,626,626,576,575,575,574,574,574,575,576,576,577,579,579,582,585,585,589,595,595,605,606,606,611,615,615,618,621,621,621,621,621,622,621,621,621,621,621,621,621,621,621,621,621,620,620,621,620,620,620,620,620,620,620,620,619,619,619,616,616,616,619,619,616,616,616,616,603,602,602,593,593,593,593,593,605,605,608,603,603,603,607,611,611,614,615,615,616,616,616,616,616,616,616,616,616,616,616,616,616,616,616,616,616,616,616,616,616,616,616,616,616,616,616,616,615,615,615,614,614,614,614,614,614,614,614,614,614,615,615,615,615,614,614,614,614,614,614,614,613,613,613,613,612,612,612,612,612,612,612,612,612,612,612,612,612,612,612,612,612,612,612,612,612,612,612,611,611,611,611,611,611,610,610,609,609,609,608,608,608,608,608,607,607,606,606,606,605,605,605,604,604,602,599,599,597,597,595,592,592,589,589,585,583,582,579,579,577,576,576,576,576,576,577,577,577,577,578,578,578,578,578,582,582,582,582,582,582,582,582,582,582,582,582,582,582,582,582,582,582,582,571,568,568,567,567,562,562,556,556,556,556,556,556,556,533,528,528,525,525,523,523,520,518,518,515,515,513,511,511,509,509,507,505,505,504,504,504,502,502,502,501,501,501,502,501,501,502,502,502,502,502,503,503,504,504,504,505,505,505,506,507,507,507,507,507,507,507,507,507,507,508,508,508,508,508,508,509,509,509,509,509,510,510,510,510,510,511,511,512,512,512,512,512,512,512,512,513,514,514,515,515,515,515,516,516,517,517,517,518,518,519,519,519,519,519,520,520,520,520,520,520,520,520,521,521,521,521,522,522,522,522,522,523,523,523,523,523,523,523,523,523,523,523,523,523,523,523,523,523,523,523,523,523,523,427,427,426,426,425,425,425,424,424,423,422,422,420
659,659,659,659,659,659,659,659,657,656,656,656,656,655,655,655,655,655,655,655,655,655,655,655,655,656,656,656,657,657,657,657,657,657,657,657,657,657,657,657,657,657,657,657,657,657,657,657,657,657,657,657,657,657,657,657,656,655,655,654,654,653,652,652,651,650,650,649,649,648,647,647,647,647,647,647,647,647,647,647,647,647,647,647,649,649,650,650,650,650,652,652,652,652,652,654,654,653,653,653,653,653,652,652,652,651,651,650,650,649,648,648,647,647,646,645,645,645,643,643,643,643,642,641,641,641,641,641,639,639,639,639,639,639,639,639,639,640,640,640,641,641,641,642,642,642,642,642,642,641,641,641,640,640,639,639,639,638,638,637,637,637,637,636,636,636,636,635,635,635,635,635,635,635,635,635,635,635,635,635,635,635,635,635,635,635,635,634,634,634,634,633,633,633,633,633,633,633,633,633,632,632,632,632,631,631,631,631,631,631,630,630,629,629,629,629,629,630,629,629,629,628,628,626,626,626,626,626,626,626,626,626,626,626,569,569,568,568,568,568,569,570,570,572,574,574,577,577,580,584,584,591,598,606,606,609,614,614,617,620,620,621,621,621,622,622,621,621,621,621,621,621,621,621,621,621,620,620,621,620,620,620,620,620,620,620,620,619,619,619,616,616,616,616,616,616,616,616,616,616,616,616,616,616,616,616,616,616,616,616,603,603,603,607,611,611,614,615,615,616,616,616,616,616,616,616,616,616,616,616,616,616,616,616,616,616,616,616,616,616,616,616,616,615,615,615,615,615,615,615,614,614,614,614,614,614,614,614,614,614,614,614,615,614,614,614,614,614,614,614,614,613,613,613,612,612,612,612,612,612,611,611,611,612,612,612,612,612,612,612,612,612,612,612,612,612,611,611,611,611,611,611,611,610,609,609,609,609,609,608,608,608,608,608,607,607,606,606,606,605,605,605,604,604,602,599,599,597,597,595,592,592,589,589,585,585,582,579,579,577,576,576,576,576,576,577,577,577,577,578,578,578,578,578,578,578,578,578,578,578,578,578,578,578,578,578,577,577,575,574,574,572,572,569,567,567,565,565,561,561,555,550,550,550,550,550,550,533,528,528,525,525,523,521,520,518,518,515,515,512,510,510,508,508,507,505,505,504,504,503,502,502,502,501,501,501,502,501,501,501,501,502,502,502,502,502,503,504,504,504,504,504,505,506,506,506,506,506,506,506,507,507,507,507,507,508,508,508,509,509,509,509,509,510,510,510,510,510,510,511,511,512,512,512,512,512,512,512,512,513,514,514,515,515,515,515,516,516,517,517,518,519,519,519,520,520,520,520,521,521,521,521,521,521,521,521,521,522,522,522,522,522,522,522,522,523,523,523,523,523,523,523,523,523,523,523,523,523,523,523,523,523,523,523,523,523,523,427,427,426,426,425,425,425,424,424,423,422,422,420
659,659,659,659,659,659,659,659,657,656,656,656,656,655,655,655,655,655,655,655,655,654,654,655,655,655,656,656,657,657,657,657,657,657,657,657,657,657,657,657,657,657,657,657,657,657,657,657,657,657,657,657,657,657,657,657,656,656,656,654,654,654,653,653,652,650,650,650,650,648,647,647,647,647,647,647,647,647,647,647,647,647,647,647,649,649,650,650,650,650,652,652,652,652,652,654,654,653,653,653,653,653,652,652,652,651,651,650,650,649,648,648,647,647,646,646,646,645,643,643,643,643,642,641,641,641,640,640,639,639,639,639,639,639,639,639,639,640,640,640,641,641,641,642,642,642,642,642,642,641,641,641,640,640,639,639,639,638,638,637,637,637,637,636,636,635,635,635,635,635,635,635,635,635,635,635,635,635,635,635,635,635,635,635,635,635,635,634,634,634,634,633,633,634,634,633,633,633,633,633,633,633,632,632,631,631,631,631,631,631,630,630,629,629,629,629,629,630,629,629,629,628,628,626,626,626,626,626,626,626,626,626,626,626,569,569,568,568,568,568,569,570,570,572,574,574,577,577,580,584,584,591,598,598,609,609,614,614,617,620,620,621,621,621,622,622,621,621,621,621,621,621,621,620,620,621,620,620,620,620,620,620,619,619,619,619,620,619,619,619,616,616,616,616,616,616,616,616,616,545,545,554,550,550,559,559,562,576,576,576,603,603,602,602,608,608,612,614,614,616,616,616,616,616,616,616,616,616,616,616,616,616,616,616,616,616,616,616,616,616,616,616,616,615,615,615,615,615,615,615,614,614,614,614,614,614,614,614,614,614,614,614,615,614,614,614,614,614,614,614,614,614,613,613,612,612,612,612,612,612,611,611,611,612,612,612,612,612,612,612,612,612,612,612,612,612,611,611,611,611,611,611,611,610,609,609,609,609,609,608,608,608,607,607,606,606,606,605,605,605,605,605,604,604,602,599,599,596,596,594,591,591,588,588,584,584,580,577,577,576,575,575,575,575,575,575,576,576,576,576,576,577,577,577,578,578,578,578,578,578,578,578,578,578,577,577,576,576,575,573,573,571,571,569,567,567,564,564,561,561,555,550,550,550,550,541,541,534,530,530,526,526,523,521,521,518,518,515,515,512,510,510,508,508,507,505,505,504,504,503,502,502,502,502,502,502,502,501,501,501,501,502,502,502,502,502,503,504,504,504,504,504,505,506,506,506,506,506,506,506,507,507,507,507,507,508,508,508,509,509,509,509,509,510,510,510,510,510,510,511,511,511,511,511,512,512,512,512,512,513,514,514,514,515,515,515,516,516,517,517,518,519,519,519,520,520,520,520,521,521,521,521,521,521,521,521,521,522,522,522,522,522,522,522,522,523,523,523,523,523,523,523,523,523,523,523,523,523,523,523,523,523,523,523,523,433,433,428,428,427,427,426,426,426,425,424,424,422,422,420
659,659,659,659,659,659,658,658,657,656,656,656,656,655,655,655,655,655,655,655,655,654,654,655,655,655,656,656,657,657,657,657,657,657,657,657,657,657,657,657,657,657,657,657,657,657,657,657,657,657,657,657,657,657,657,657,657,656,656,655,655,654,654,654,652,650,650,650,650,648,647,647,647,647,647,647,647,647,647,647,647,647,647,647,649,649,650,650,650,650,651,651,652,652,652,653,653,653,653,652,652,652,652,652,651,650,650,650,650,649,647,647,647,647,646,645,645,645,644,644,643,643,643,642,642,641,640,640,640,640,639,639,639,639,639,639,639,641,641,641,641,641,642,642,642,642,642,642,642,641,641,641,640,640,639,639,639,638,638,637,637,637,637,636,636,635,635,635,635,635,635,635,635,635,635,635,635,635,635,635,635,635,635,635,635,635,635,635,635,634,634,634,634,634,634,633,633,633,633,633,633,633,632,632,631,631,631,631,631,631,630,630,629,629,629,629,629,629,628,628,628,628,628,622,622,610,610,610,610,610,610,610,569,569,565,565,565,566,567,567,567,568,568,569,569,570,573,573,576,581,581,588,594,594,608,608,613,613,617,620,620,621,621,621,622,622,621,621,621,621,621,621,621,620,620,620,619,619,619,618,618,618,619,619,617,617,617,619,619,619,619,619,619,619,619,619,619,544,544,544,545,554,550,550,559,559,562,576,576,576,576,576,602,602,608,608,612,614,614,616,616,616,616,616,616,616,616,616,616,616,616,616,616,616,616,616,616,616,616,616,616,616,616,616,616,616,615,615,615,615,614,614,614,614,614,614,614,614,614,614,614,614,614,614,614,614,614,614,614,613,613,613,613,613,612,612,612,612,612,612,611,611,611,612,612,611,611,611,611,612,612,612,612,612,612,611,611,611,611,611,611,610,610,609,609,609,608,608,608,608,608,608,606,606,606,606,605,605,605,605,604,604,604,604,601,598,598,596,596,594,590,590,587,587,583,583,579,576,576,575,575,573,573,573,573,575,576,576,576,576,576,577,577,577,578,578,578,578,578,578,578,578,578,578,577,577,576,576,575,573,573,571,571,570,567,567,564,564,561,561,556,551,551,551,551,541,541,536,531,531,527,527,524,521,521,518,518,515,515,512,510,510,508,508,506,505,505,504,503,503,502,502,502,502,502,502,502,501,501,501,501,501,501,501,502,502,502,503,503,503,504,504,504,504,504,505,505,505,506,506,506,507,507,507,507,508,508,508,509,509,509,509,509,510,510,510,510,510,510,511,511,511,511,511,512,512,512,512,512,513,513,513,514,515,515,515,516,516,517,517,518,519,519,520,520,520,521,521,521,521,521,521,521,521,521,521,521,522,522,522,522,522,522,522,522,523,523,523,523,523,523,523,523,523,523,523,523,523,523,523,523,523,523,523,523,433,433,431,431,429,428,428,427,427,426,424,424,422,422,420
659,659,659,659,659,659,658,658,657,656,656,656,656,655,654,654,654,654,655,655,655,654,654,655,655,655,656,656,656,657,657,657,657,657,657,657,657,657,657,657,657,657,657,657,657,657,657,657,657,657,657,657,657,657,657,657,656,656,656,655,655,654,653,653,652,651,651,650,650,649,648,648,648,648,647,647,647,647,647,647,647,647,648,648,649,649,650,650,650,650,651,651,652,652,652,652,652,652,652,652,652,652,652,652,651,650,650,650,650,649,647,647,647,647,646,645,645,645,644,644,643,643,643,642,642,641,641,641,640,640,639,639,639,639,639,639,639,641,641,641,642,642,643,643,643,643,643,643,643,641,641,641,640,640,639,639,639,638,638,637,637,637,636,636,636,635,635,635,635,635,635,635,635,635,635,635,635,635,635,635,635,635,635,635,635,635,635,634,634,634,634,634,634,634,634,633,633,633,633,633,633,633,632,632,631,631,631,631,630,630,629,629,629,629,629,629,629,629,628,628,628,628,628,622,622,610,610,610,610,578,578,570,565,565,563,563,563,563,563,563,565,565,565,567,567,568,573,573,576,581,581,588,594,594,608,608,613,613,617,620,620,621,621,621,622,622,621,621,621,621,621,621,621,620,620,620,619,619,619,618,618,618,619,619,617,617,617,617,617,617,617,617,617,617,617,617,617,544,544,544,545,546,546,546,549,549,559,565,565,572,572,572,602,602,603,603,609,612,612,616,616,616,616,616,616,616,616,616,616,616,616,616,616,616,616,616,616,616,616,616,616,616,616,616,616,615,615,615,615,615,614,614,614,614,614,614,614,614,614,614,614,614,614,614,614,614,613,613,613,613,613,613,612,612,612,612,612,612,612,612,611,611,611,611,611,611,611,611,611,611,611,612,612,612,612,611,611,611,611,611,611,610,610,609,609,609,608,608,608,608,608,608,606,606,606,606,605,605,605,605,604,604,604,604,601,598,598,596,596,596,590,590,587,587,583,583,579,576,576,575,575,573,573,573,573,574,575,575,575,575,575,576,576,576,577,577,577,577,577,577,577,577,577,577,576,576,575,575,575,572,572,571,571,569,567,567,563,563,560,556,556,551,551,547,547,541,537,536,531,531,527,527,524,521,521,518,518,515,515,512,510,510,508,508,506,505,505,504,503,503,502,502,502,502,502,502,502,501,501,501,501,501,501,501,501,501,502,502,502,502,503,503,504,504,504,505,505,505,506,506,506,507,507,507,507,508,508,508,509,509,509,509,509,510,510,510,510,510,510,511,511,511,512,512,512,512,512,512,512,513,513,513,514,515,515,515,516,516,517,517,518,519,519,520,521,521,521,521,521,521,521,521,521,521,521,521,521,521,521,522,522,522,522,522,522,523,523,523,523,523,523,523,523,523,523,523,523,523,523,523,523,523,523,523,523,433,433,431,431,429,428,428,427,427,426,424,424,422,422,420
659,659,659,659,659,659,658,658,657,656,656,656,656,655,654,654,654,654,654,654,654,654,654,655,655,655,656,656,656,657,657,657,657,657,657,657,657,657,657,657,657,657,657,656,656,656,656,657,657,657,657,657,657,657,657,657,656,656,656,655,655,654,653,653,652,652,652,650,650,650,649,649,648,648,648,648,648,648,648,648,648,648,649,649,650,650,650,650,650,650,651,651,652,652,652,652,652,652,652,652,652,652,651,651,651,650,650,649,649,648,647,647,646,646,645,645,645,644,644,644,643,643,643,642,642,641,641,641,640,640,639,639,639,639,639,639,639,641,641,641,642,642,643,643,643,643,643,643,643,641,641,641,640,640,639,639,639,638,638,637,637,637,636,635,635,635,635,635,634,634,634,634,634,634,634,634,635,635,635,635,635,635,635,635,635,635,635,634,634,634,634,634,634,634,634,634,634,633,633,633,633,633,632,632,631,631,631,631,630,630,629,629,629,629,629,629,629,629,629,629,629,628,628,628,628,628,628,628,628,578,578,570,565,565,563,563,563,563,563,563,565,565,565,567,567,568,570,570,573,578,578,585,592,592,606,606,612,612,616,619,619,621,621,621,621,621,621,621,621,621,621,621,621,620,620,620,619,618,618,618,618,618,617,617,617,617,617,617,617,617,617,617,617,617,543,543,543,544,544,544,545,546,546,546,548,548,550,550,556,562,562,562,562,599,599,599,605,610,610,614,616,616,616,616,616,616,616,616,616,616,616,616,616,616,616,616,616,616,616,616,616,616,616,616,616,615,615,615,615,615,614,614,614,614,614,614,614,614,614,614,614,614,614,614,614,614,613,613,613,613,613,613,612,612,612,612,612,612,612,612,611,611,611,611,611,611,611,611,611,611,611,612,612,612,612,611,611,611,611,611,611,609,609,609,609,609,608,608,608,608,608,607,606,606,606,606,605,605,605,605,604,604,603,603,601,598,598,595,595,595,589,589,586,586,582,582,578,576,576,574,574,573,573,573,573,573,575,575,575,575,575,575,575,575,576,576,576,576,576,576,576,576,576,576,576,576,575,575,574,572,572,570,570,568,565,565,562,562,559,556,556,552,552,547,547,542,537,537,532,532,528,528,524,522,522,519,519,515,515,512,510,510,508,508,506,505,505,504,503,503,502,502,502,502,502,502,502,501,501,501,501,501,501,501,501,501,502,502,502,502,503,503,504,504,504,504,504,505,505,505,506,507,507,507,507,507,508,508,508,509,509,509,509,509,510,510,510,510,510,511,511,511,511,511,512,512,512,512,512,513,513,513,514,515,515,515,516,516,517,517,518,519,519,520,520,520,520,521,521,522,522,521,521,521,521,521,521,521,521,521,521,521,521,522,522,522,522,523,523,523,523,523,523,523,523,523,523,523,523,523,523,523,523,523,523,523,523,433,433,431,429,429,428,428,426,425,425,423,423,421
659,659,659,659,659,659,659,659,657,656,656,656,656,655,655,655,654,654,654,654,654,654,654,655,655,655,656,656,656,657,657,657,657,657,657,657,657,657,657,657,657,657,657,656,656,656,656,656,656,656,656,656,656,656,656,656,655,655,655,654,654,654,653,653,652,652,652,650,650,650,649,649,648,648,648,648,648,648,648,648,648,648,649,649,650,650,650,650,650,650,651,651,651,651,651,652,652,651,651,651,651,650,650,650,650,649,649,648,648,647,646,646,645,645,645,644,644,644,643,643,643,643,643,642,642,641,641,641,640,640,639,639,639,639,639,640,640,641,641,641,643,643,643,643,643,643,643,643,643,642,641,641,640,640,639,639,639,638,638,637,637,637,636,635,635,635,635,635,634,634,634,634,634,634,634,634,635,635,635,635,635,635,635,635,635,635,635,634,634,634,634,634,633,633,633,633,633,633,633,633,633,633,632,631,631,631,631,631,630,630,629,629,629,629,629,629,629,629,628,628,628,628,628,628,628,628,628,628,628,578,578,563,562,562,561,561,561,561,562,562,562,563,563,564,564,565,568,568,571,577,577,583,591,598,598,606,611,611,616,619,619,620,621,621,621,621,621,621,621,621,621,621,621,620,620,620,618,618,618,617,617,617,617,617,617,617,617,617,617,617,617,617,617,617,543,543,543,544,544,544,545,547,547,547,548,548,550,550,556,562,562,562,562,599,599,599,605,610,610,614,616,616,616,616,616,616,616,616,616,616,616,616,616,616,616,616,616,616,616,616,616,616,616,616,616,615,615,615,615,615,614,614,614,614,614,614,614,614,614,614,614,614,614,614,614,614,613,613,613,613,613,613,612,612,612,612,612,612,612,612,611,611,611,611,611,611,611,611,611,611,611,612,612,611,611,611,611,611,611,610,610,609,609,609,608,608,608,608,608,608,608,607,606,606,605,605,605,605,605,605,604,604,603,603,601,599,599,595,595,595,589,589,586,586,582,582,578,576,576,574,574,573,573,573,573,573,575,575,575,575,575,575,575,575,576,576,576,576,576,576,576,576,576,576,576,576,575,575,574,572,572,570,570,568,565,565,562,562,559,555,555,551,551,546,546,542,537,537,532,532,528,528,524,522,522,519,519,515,515,512,510,510,508,508,506,505,505,504,503,503,502,502,502,502,502,502,502,501,501,501,501,501,501,501,501,501,501,502,502,502,502,502,503,504,504,504,504,505,505,505,506,507,507,507,507,507,508,508,508,509,509,509,509,509,510,510,510,510,510,511,511,511,511,511,512,512,512,512,513,513,514,514,514,515,515,515,516,516,517,517,519,519,519,520,520,520,520,521,521,522,522,521,521,521,521,521,521,521,521,521,521,521,521,522,522,522,522,522,522,522,522,522,522,522,522,522,522,522,522,522,522,522,522,522,522,522,522,433,433,431,429,429,428,428,426,425,425,423,423,421
659,659,659,659,659,659,659,659,657,656,656,656,656,655,655,655,654,654,654,654,654,654,654,654,654,655,655,655,656,656,656,657,657,657,657,657,657,657,657,657,657,656,656,656,655,655,655,655,655,655,655,655,655,655,655,656,655,654,654,654,654,654,653,653,652,652,652,650,650,650,650,650,650,649,649,649,649,649,649,649,648,648,649,649,650,650,650,650,650,650,651,651,651,651,651,652,652,651,651,651,651,650,650,650,650,649,649,648,648,647,646,646,645,645,645,644,644,644,643,643,643,643,643,642,642,642,641,641,641,641,640,640,640,640,640,640,640,641,641,641,643,643,643,643,643,643,643,643,643,641,641,641,640,640,639,639,639,637,637,637,636,636,635,635,635,635,635,634,634,634,634,634,634,634,634,634,634,634,634,634,634,634,634,634,634,634,634,634,634,634,634,633,633,633,633,633,633,633,633,633,633,633,632,631,631,631,631,631,630,630,629,629,629,629,629,628,628,628,628,628,627,627,627,627,627,627,627,627,627,627,627,563,562,562,561,561,561,561,562,562,562,563,563,564,564,565,568,568,571,577,577,583,591,598,598,606,611,611,616,619,619,620,621,621,621,621,621,621,621,621,621,621,621,620,620,620,618,618,618,617,617,617,617,617,617,617,617,617,617,617,617,542,542,542,542,542,542,543,544,544,545,546,546,546,547,547,549,549,551,557,565,565,575,594,594,594,602,608,608,613,616,616,616,616,616,616,616,616,616,616,616,616,616,616,616,616,616,616,616,616,616,616,616,616,616,615,615,615,615,615,615,614,614,614,614,614,614,614,614,614,614,614,614,614,614,614,613,613,613,613,613,613,612,612,612,612,612,612,612,612,611,611,611,611,611,611,611,611,611,611,611,612,612,611,611,611,611,611,611,610,610,609,609,609,608,608,608,608,608,608,608,607,606,606,605,605,605,605,605,605,604,604,603,603,601,598,598,595,595,595,589,589,585,585,581,581,578,575,575,574,573,573,573,573,573,573,575,574,574,575,575,575,575,575,576,576,576,576,576,576,575,575,577,576,576,576,575,575,574,572,572,570,570,568,565,565,561,561,559,555,555,551,551,546,546,542,538,538,533,533,529,529,525,522,522,519,519,515,512,512,509,509,507,507,506,505,505,504,504,504,502,502,502,502,502,502,502,502,502,502,501,501,501,501,501,501,501,502,502,502,502,502,503,504,504,504,504,505,505,505,506,507,507,507,507,507,508,508,508,509,509,509,509,509,510,510,510,510,510,511,511,511,512,512,512,512,512,512,513,513,514,514,514,515,515,515,516,516,517,517,518,519,519,520,520,520,520,521,521,521,521,521,521,520,520,520,520,520,520,521,521,521,521,521,521,522,522,522,522,522,522,522,522,522,522,522,522,522,522,522,522,522,522,522,522,438,438,435,435,433,431,431,429,429,428,425,425,423,423,421
659,659,659,659,659,659,658,658,657,656,656,656,655,655,654,654,654,654,654,654,654,654,654,654,654,654,654,654,656,656,656,657,657,657,657,657,657,657,657,657,657,656,656,656,655,655,655,655,655,655,655,655,655,655,655,656,655,654,654,654,654,654,653,653,652,652,652,651,651,650,650,650,650,650,650,650,650,650,650,650,648,648,649,649,650,650,650,650,650,650,650,650,650,650,650,650,650,650,650,650,650,650,649,649,649,647,647,647,647,647,645,645,645,645,644,644,644,643,643,643,643,643,642,642,642,641,641,641,641,641,640,640,640,640,640,641,641,641,641,642,642,642,642,643,643,643,643,642,642,641,640,640,639,639,639,638,638,637,637,637,636,636,635,635,635,635,635,634,634,634,634,634,634,634,634,634,634,634,634,634,634,634,634,634,634,634,634,634,634,634,634,633,633,633,633,633,633,633,633,633,633,633,632,631,631,631,631,631,630,630,629,629,629,629,629,628,628,628,628,628,627,627,627,627,627,627,627,627,627,627,627,561,561,560,560,560,560,560,560,560,560,560,561,562,562,564,566,566,570,576,576,582,589,589,597,605,611,611,616,619,619,620,621,621,621,621,621,621,621,621,621,621,621,620,620,620,618,618,618,617,617,617,617,617,617,617,617,617,540,540,541,541,541,542,542,542,542,543,544,544,544,546,546,546,547,547,548,548,550,554,554,561,570,594,594,594,598,608,608,613,616,616,616,616,616,616,616,616,616,616,616,616,616,616,616,616,616,616,616,616,616,616,616,616,616,615,615,615,615,615,615,615,615,614,614,614,614,614,614,614,614,614,614,614,614,614,613,613,613,613,613,613,612,612,612,612,612,612,612,612,611,611,611,611,611,611,611,611,611,611,611,612,612,611,611,611,611,611,610,610,610,609,609,608,608,608,608,608,608,608,608,606,606,606,605,605,605,605,605,604,604,604,603,603,600,598,598,595,595,592,588,588,585,585,581,581,577,575,575,574,573,573,573,573,573,573,575,574,574,575,575,575,575,575,576,576,577,577,575,575,575,575,577,576,576,576,575,575,574,572,572,571,571,568,565,565,561,561,559,555,555,551,551,546,546,542,539,539,534,534,530,530,526,523,523,519,519,515,512,512,509,509,507,507,507,505,505,504,504,504,503,503,502,502,502,502,502,502,502,502,501,501,501,501,501,501,501,501,501,502,502,502,503,504,504,504,504,504,505,505,506,507,507,507,507,507,508,508,508,509,509,509,509,509,510,510,510,510,510,511,511,511,512,512,512,512,512,512,513,513,514,514,514,515,515,515,516,516,517,517,518,519,519,519,520,520,520,520,520,520,520,519,519,519,519,518,517,517,517,517,518,518,518,518,521,521,521,521,521,521,521,521,521,521,521,521,521,521,521,521,521,521,521,521,521,438,438,436,435,435,432,432,431,431,429,427,427,424,424,422
659,659,659,659,659,659,658,658,657,656,656,656,655,655,654,654,654,654,654,654,654,654,654,654,654,654,654,654,655,656,656,656,656,656,656,656,656,657,656,656,656,656,656,655,655,655,654,654,654,654,655,654,654,655,655,655,654,654,654,654,654,654,653,653,652,652,652,651,651,650,650,650,650,650,650,650,650,650,650,650,649,649,650,650,650,650,649,649,649,649,650,649,649,649,649,649,649,649,649,648,648,648,648,648,647,647,647,646,646,645,645,645,644,644,644,643,643,643,643,643,643,643,642,642,642,641,641,641,641,641,641,640,640,640,640,641,641,641,641,642,642,642,642,643,643,643,643,642,642,641,640,640,639,639,639,638,638,637,637,637,636,636,635,635,635,635,635,635,634,634,634,634,634,634,634,634,634,634,634,634,634,634,634,634,634,634,634,634,634,634,634,633,633,633,633,633,633,633,633,633,633,633,632,631,631,631,631,631,630,630,629,629,629,629,629,628,628,628,628,628,627,627,627,627,627,627,627,627,627,627,627,559,559,559,558,558,558,558,558,558,559,559,560,561,561,562,564,564,568,573,573,581,588,588,596,604,611,611,616,619,619,619,621,621,621,621,621,621,621,621,621,621,621,620,620,621,618,618,618,618,618,618,618,618,618,618,618,618,540,540,541,541,541,542,542,542,542,543,544,544,544,546,546,546,547,547,548,548,550,554,554,561,570,570,570,598,598,605,605,612,616,616,616,616,616,616,616,616,616,616,616,616,616,616,616,616,616,616,616,616,616,616,616,615,615,615,615,615,614,614,614,614,614,614,614,614,614,614,614,614,614,614,614,614,613,613,613,613,613,613,613,613,612,612,612,612,612,612,612,612,612,612,612,612,612,611,611,611,611,611,611,611,611,611,611,611,611,611,610,610,610,609,609,608,608,608,608,608,608,608,608,606,606,606,606,606,605,605,605,604,604,604,603,603,600,598,598,595,595,592,588,588,585,585,581,581,577,575,575,574,573,573,573,573,573,574,575,574,574,575,575,575,575,575,576,576,577,577,575,575,575,575,577,576,576,576,575,575,573,572,572,570,570,567,564,564,561,561,558,554,554,550,550,546,546,542,538,538,534,534,530,530,526,523,523,519,519,515,512,512,509,509,507,507,507,505,505,504,504,504,503,503,502,502,502,502,502,502,502,502,501,501,501,501,501,501,501,501,501,502,502,502,502,503,503,504,504,504,505,505,506,507,507,507,507,507,508,508,509,509,509,509,509,509,510,510,510,510,510,511,512,512,512,512,512,512,512,513,513,513,514,514,514,515,515,515,516,516,517,517,518,519,519,519,520,520,520,520,520,520,520,519,519,519,519,518,517,517,517,517,518,518,518,518,518,518,518,518,518,518,518,518,518,518,518,518,518,518,446,446,444,444,442,441,441,438,438,436,435,435,432,432,431,431,429,427,427,424,424,422
659,659,659,659,658,658,657,657,657,656,656,655,655,655,654,654,654,654,654,654,654,654,654,654,654,654,654,654,654,655,655,656,655,655,656,656,656,656,656,656,656,656,656,655,655,655,654,654,654,654,655,654,654,655,654,654,654,654,654,654,654,653,653,653,652,652,652,651,651,651,651,651,650,650,650,650,650,650,650,650,650,650,650,650,650,650,649,649,649,649,650,649,649,649,649,649,649,649,649,648,648,648,648,648,647,647,647,646,646,645,645,645,644,644,644,643,643,643,643,643,642,642,642,641,641,641,641,641,641,641,641,640,640,640,640,641,641,641,641,641,641,641,641,641,641,642,641,641,641,641,640,640,639,639,639,638,638,637,637,637,636,636,635,635,635,635,635,635,634,634,634,634,634,634,634,634,634,634,634,634,634,634,634,634,634,634,634,633,633,633,633,633,633,633,633,633,633,633,633,633,633,633,632,631,631,631,631,631,630,630,629,629,629,629,629,628,628,628,628,628,627,627,627,627,627,627,627,627,627,627,627,559,559,559,558,558,558,558,558,558,559,559,560,561,561,562,564,564,568,573,573,581,588,588,596,604,611,611,616,619,619,619,620,620,621,621,621,621,621,621,621,620,620,620,620,621,618,618,618,618,618,618,618,618,553,553,539,539,539,540,541,541,541,542,542,542,542,543,543,543,544,545,545,546,547,547,548,548,549,552,552,558,567,576,576,595,595,603,603,611,616,616,616,616,616,616,616,616,617,617,617,617,617,617,616,616,616,616,616,616,616,616,616,615,615,615,615,615,614,614,614,614,614,614,614,614,614,614,614,614,614,614,614,614,613,613,613,613,613,613,613,613,612,612,612,612,612,612,612,612,612,612,612,612,612,611,611,611,611,611,611,611,611,611,611,611,611,611,610,610,610,609,609,608,608,608,608,608,608,607,607,606,606,606,606,606,605,605,605,604,603,603,603,603,600,598,598,595,595,592,588,588,584,584,581,581,577,575,575,574,573,573,573,573,573,574,575,574,574,575,575,575,575,575,576,576,576,576,575,575,575,575,576,575,575,575,574,574,572,571,571,569,569,567,564,564,560,560,557,553,553,550,550,545,545,542,538,538,534,534,530,530,527,523,523,519,519,515,512,512,509,509,507,507,507,505,505,504,504,504,503,503,503,502,502,502,502,502,502,502,501,501,501,501,501,501,501,501,501,502,502,502,502,503,503,504,504,504,505,505,506,507,507,507,507,508,508,508,509,509,509,509,509,509,510,510,510,510,510,511,511,511,512,512,512,512,512,512,513,513,514,514,514,515,515,515,516,516,517,517,518,518,518,519,519,519,519,519,519,519,519,518,518,516,516,515,514,514,514,513,513,513,518,518,518,518,518,518,518,518,518,518,518,518,518,518,518,518,446,446,444,444,442,441,441,440,440,438,436,436,434,434,432,431,431,428,428,425,425,423
659,659,659,659,658,658,657,657,657,656,656,655,655,655,654,654,654,654,654,654,654,654,654,654,654,654,654,654,654,655,655,656,655,655,656,656,656,656,656,656,656,656,656,655,655,655,655,655,655,655,655,655,655,655,654,654,654,654,654,654,654,653,653,653,652,652,652,651,651,651,651,651,650,650,650,650,650,650,650,650,650,650,650,650,650,650,649,649,649,649,649,649,649,649,649,649,649,649,649,648,648,648,647,647,647,647,647,646,646,645,644,644,644,644,643,643,643,643,642,642,641,641,641,641,641,641,641,641,641,641,641,640,640,640,640,641,641,641,641,641,641,641,641,641,641,641,641,641,641,640,640,640,639,639,639,638,638,637,637,637,637,637,636,635,635,635,635,635,635,635,634,634,634,634,634,634,634,634,634,634,634,634,634,634,634,634,634,633,633,633,633,633,633,633,633,633,633,633,633,633,633,633,633,632,632,631,631,631,630,630,629,629,629,628,628,628,628,628,628,628,627,627,627,627,627,627,627,627,627,627,627,556,556,556,556,557,557,557,557,557,557,557,558,559,559,560,562,562,567,572,572,578,586,586,593,602,609,609,615,618,618,619,619,619,620,620,621,621,621,621,621,620,620,620,620,621,621,621,621,621,621,537,537,537,538,538,538,539,539,540,540,540,541,541,541,541,541,542,543,543,544,545,545,546,547,547,548,548,549,552,552,558,567,576,576,595,595,603,603,611,616,616,616,616,616,616,616,617,617,617,617,617,617,617,616,616,616,616,616,616,616,616,616,615,615,615,615,615,615,615,614,614,614,614,614,614,614,614,614,614,614,614,614,614,613,613,613,613,613,613,612,612,612,612,612,612,612,612,612,612,612,612,612,612,612,611,611,611,611,611,611,611,611,611,611,610,610,610,609,609,609,608,608,608,608,608,608,607,607,607,607,606,606,606,606,606,605,605,605,605,603,603,603,603,600,598,598,594,594,591,588,588,584,584,581,578,577,576,576,574,573,573,573,573,573,574,575,575,575,575,575,575,575,576,576,576,576,576,576,576,575,575,576,575,575,575,574,574,572,571,571,569,569,567,564,564,560,560,557,553,553,550,550,545,545,542,538,538,534,534,531,531,527,523,523,519,519,515,512,512,509,509,507,506,506,505,505,504,503,503,503,503,502,502,502,502,502,502,501,501,501,500,500,500,500,500,501,501,501,501,502,502,502,503,503,504,504,504,505,505,506,507,507,507,507,508,508,508,509,509,509,509,509,509,510,510,510,510,510,511,511,511,512,512,512,512,512,512,513,513,514,514,514,515,515,515,516,516,516,517,517,518,518,518,518,518,518,519,519,519,519,518,518,516,516,515,514,514,514,513,513,513,513,513,513,513,513,513,513,513,513,513,513,513,513,513,513,513,446,446,445,445,443,442,442,441,441,439,437,437,435,435,433,431,431,431,431,426,426,423
659,659,659,659,658,658,657,657,657,656,656,655,655,655,654,654,654,654,654,654,654,654,654,654,654,654,654,654,654,655,655,655,655,655,655,655,656,656,656,656,656,656,656,655,655,655,655,655,655,655,655,654,654,655,654,654,654,654,654,654,654,653,653,653,652,652,652,651,651,651,651,651,651,651,651,651,651,651,651,651,650,650,650,650,650,650,649,649,649,649,649,649,649,649,649,649,649,648,648,648,648,648,647,647,647,647,647,646,646,645,644,644,644,644,643,643,643,643,642,642,641,641,641,641,641,641,641,641,641,641,641,640,640,640,640,641,641,641,641,641,641,641,641,641,641,641,641,641,641,640,640,640,639,639,639,638,638,637,637,637,637,637,636,635,635,635,635,635,635,635,634,634,634,634,634,634,634,634,634,634,634,634,634,634,634,634,633,633,633,633,633,633,633,633,633,633,633,633,633,633,633,633,632,631,631,631,631,631,630,630,629,629,629,628,628,628,628,628,627,627,627,627,627,627,627,627,627,627,627,627,627,556,556,555,555,555,555,555,555,555,556,556,556,558,558,560,562,562,567,572,572,578,586,586,593,602,609,609,615,618,618,619,619,619,620,620,621,621,621,621,621,621,621,621,621,621,621,621,621,621,621,537,537,537,538,538,538,539,539,540,540,540,541,541,541,541,541,542,542,542,544,545,545,546,547,547,548,548,549,551,551,556,564,574,574,595,595,600,600,609,616,616,616,616,616,616,616,617,617,617,617,617,617,617,616,616,616,616,616,616,616,616,616,615,615,615,614,614,614,614,614,614,614,614,614,614,614,614,614,614,614,614,613,613,613,613,612,612,613,612,612,612,612,612,612,612,612,612,612,612,612,612,612,611,611,611,611,611,611,611,611,611,611,611,611,610,610,610,609,609,609,608,608,608,608,608,608,607,607,607,607,606,606,606,606,606,605,605,605,605,604,604,603,603,600,598,598,594,594,591,588,588,585,585,582,578,578,577,577,575,573,573,573,573,573,574,575,575,575,575,575,575,576,576,576,576,576,576,576,576,575,575,575,575,575,575,573,573,572,570,570,568,568,566,563,563,560,560,557,553,553,549,549,545,545,542,538,538,534,534,530,530,526,522,522,518,518,515,511,511,509,509,507,506,506,505,505,504,503,503,502,502,502,502,502,502,502,502,501,501,501,500,500,500,500,500,501,501,501,501,502,502,502,503,503,504,504,504,505,505,506,507,507,507,507,508,508,508,509,509,509,509,509,509,510,510,510,511,511,511,512,512,512,512,512,512,512,513,513,513,514,514,515,515,515,515,516,516,516,517,517,518,518,518,518,518,518,518,517,517,516,515,515,514,514,512,510,510,509,509,508,508,508,508,508,508,508,508,508,508,508,508,508,508,508,508,508,508,446,446,445,444,443,442,442,441,440,439,437,437,435,435,433,431,431,430,430,426,426,424
659,659,659,658,658,658,657,657,657,656,656,655,655,655,654,654,654,654,654,654,654,654,654,654,654,654,654,654,654,655,654,654,654,655,655,655,656,656,656,656,656,656,656,655,655,655,655,655,655,655,655,654,654,655,655,655,654,654,654,654,654,654,653,653,652,652,652,651,651,651,651,652,652,652,652,652,652,652,651,651,651,651,651,651,651,650,649,649,649,649,649,649,649,649,649,649,649,648,648,648,648,647,647,647,647,646,646,645,645,645,643,643,643,643,642,641,641,641,641,641,641,641,641,640,640,640,641,641,641,641,641,640,640,640,640,640,640,641,641,641,641,640,640,640,640,640,640,640,640,639,639,639,639,639,638,638,638,637,637,637,637,637,636,636,636,635,635,635,635,635,635,634,634,634,634,634,634,634,634,634,634,634,634,634,633,633,633,633,633,633,633,633,633,633,633,633,633,633,633,633,633,633,632,631,631,631,631,631,630,630,629,629,629,628,628,628,628,628,627,627,627,627,627,627,627,627,627,627,627,627,627,556,556,555,555,555,555,555,555,555,556,556,556,558,558,559,560,560,564,570,570,578,586,586,592,600,608,608,614,618,618,619,619,619,620,620,620,621,621,621,621,621,621,621,621,621,621,621,536,536,536,536,536,536,537,538,538,538,538,539,540,540,540,541,541,541,541,542,542,542,544,545,545,546,547,547,548,548,549,550,550,554,562,571,571,571,598,598,598,608,615,615,615,616,616,616,616,616,616,616,616,616,616,616,616,616,616,616,616,616,616,616,616,616,616,615,614,614,614,614,614,614,614,614,614,614,614,614,614,614,614,614,613,613,613,613,612,612,613,612,612,612,612,612,612,612,612,612,612,612,612,612,612,611,611,611,611,611,611,611,611,611,611,610,610,610,609,609,609,609,609,608,608,608,608,608,607,607,607,607,607,606,606,606,606,606,605,605,605,605,604,604,603,603,600,598,598,594,594,591,588,588,585,585,582,578,578,577,577,575,575,575,575,575,575,575,576,575,575,575,575,577,576,576,577,577,577,577,575,575,575,575,575,575,574,574,573,573,572,570,570,568,568,565,563,563,560,560,557,553,553,549,549,545,545,542,538,538,534,534,530,530,526,522,522,518,518,515,511,511,509,509,507,506,506,505,505,504,503,503,502,502,502,502,502,502,502,502,502,502,501,501,501,501,501,501,501,501,501,502,502,502,502,503,503,504,504,504,505,505,506,507,507,507,507,508,508,508,509,509,509,509,509,509,510,510,510,511,511,511,512,512,512,512,512,512,512,513,513,513,514,514,515,515,515,515,515,515,516,516,516,516,516,517,517,516,516,516,515,515,514,513,513,511,511,509,506,506,505,505,503,503,503,503,503,503,503,503,503,503,503,503,503,503,503,503,503,447,446,446,445,444,444,443,443,441,440,440,438,438,436,436,434,432,432,430,430,430,430,430
659,659,659,658,658,658,657,657,657,656,656,656,655,655,655,655,655,654,654,654,654,654,654,654,654,654,654,654,654,655,654,654,654,655,655,655,656,656,656,656,656,656,656,655,655,655,655,655,655,655,655,654,654,655,655,655,654,654,654,654,653,653,652,652,652,652,652,651,651,651,651,652,652,652,652,652,652,652,651,651,651,651,651,651,651,650,649,649,648,648,648,648,648,648,648,648,648,647,647,647,647,647,647,647,646,645,645,645,645,643,643,643,642,642,641,641,641,641,640,640,640,640,639,639,640,640,640,640,640,640,640,640,640,640,640,640,640,641,641,641,641,640,640,640,640,640,640,640,640,639,639,639,639,639,638,638,638,637,637,637,637,637,637,637,637,636,635,635,635,635,635,635,635,635,635,634,634,634,634,634,634,634,634,634,633,633,633,633,633,633,633,633,633,633,633,633,633,633,633,633,633,633,632,631,631,631,631,630,630,630,629,629,629,628,628,627,627,628,626,626,626,627,627,627,627,627,627,627,627,627,627,555,555,554,554,554,554,553,553,553,554,554,555,556,556,557,559,559,562,568,568,573,589,589,589,598,606,606,612,618,618,619,619,619,620,620,620,621,621,621,621,621,621,621,621,621,535,535,535,536,536,536,536,536,537,538,538,538,538,539,540,540,540,541,541,541,542,542,543,543,544,545,545,546,547,547,548,549,549,550,550,554,562,571,571,571,598,598,598,608,615,615,615,616,616,616,616,616,616,616,616,616,616,616,616,616,616,616,616,616,616,616,615,615,615,614,614,614,614,614,614,614,614,614,614,614,614,614,613,613,614,613,613,613,613,613,612,612,612,612,612,612,612,612,612,612,612,612,612,612,612,612,612,611,611,611,611,611,610,610,610,610,610,610,610,609,609,609,609,609,609,608,608,608,607,607,607,607,607,606,606,606,606,606,606,605,605,605,605,605,604,604,603,603,601,598,598,595,595,592,589,589,586,586,583,579,579,577,577,576,576,576,576,576,576,576,577,576,576,576,576,577,577,577,577,577,577,577,575,575,575,575,575,575,574,574,573,573,572,570,570,568,568,565,563,563,560,560,556,553,553,549,549,545,545,541,538,538,534,534,530,527,526,522,522,518,518,515,511,511,509,509,507,506,506,505,505,504,503,503,502,502,502,502,502,502,502,502,501,501,501,501,501,501,501,501,501,501,501,502,502,502,502,503,503,504,504,505,506,506,506,507,507,507,508,508,509,509,509,509,509,509,509,509,510,510,510,511,511,511,512,512,512,512,512,513,513,513,514,514,514,514,515,515,515,515,515,515,516,516,516,516,516,517,517,516,516,516,515,515,514,513,513,511,511,509,506,506,505,505,503,503,503,503,503,503,503,503,503,503,503,503,503,503,503,503,503,447,446,446,445,444,444,443,443,441,440,440,438,438,436,436,434,432,432,430,430,430,430,430
659,659,659,658,658,658,657,657,657,656,656,656,655,655,655,655,655,654,654,654,654,654,654,654,654,654,654,654,654,654,654,654,654,654,654,654,656,656,656,656,656,656,656,656,656,656,656,656,656,656,656,655,655,655,655,655,654,654,654,654,653,653,652,652,652,652,652,651,651,651,651,652,652,652,652,652,652,652,652,652,651,651,651,651,651,650,649,649,648,648,648,648,648,648,648,648,648,647,647,647,647,647,647,647,646,645,645,645,645,643,643,643,642,642,641,641,641,641,640,640,640,640,639,639,640,640,640,640,640,640,640,640,640,640,640,640,640,640,640,640,640,640,639,639,639,639,639,639,639,639,639,639,638,638,638,638,638,637,637,637,637,637,637,637,637,636,635,635,635,635,635,635,635,635,635,634,634,634,634,634,634,634,634,634,633,633,633,633,633,633,633,633,633,633,633,633,633,633,633,633,633,633,632,631,631,631,631,630,629,629,629,628,628,628,628,627,626,626,626,626,626,626,626,626,626,626,626,626,626,626,626,555,555,554,554,554,554,553,553,553,554,554,555,556,556,557,559,559,562,568,568,573,589,589,589,598,606,606,612,618,618,619,619,619,620,621,621,621,621,621,621,621,621,621,621,621,535,535,535,535,535,535,536,536,536,536,536,538,538,538,539,539,540,541,541,541,542,542,543,543,543,544,544,545,546,546,547,547,548,549,549,552,561,570,570,570,597,597,597,606,615,615,615,616,616,616,616,616,616,616,616,616,616,616,616,616,616,616,616,616,615,615,615,614,614,614,614,614,614,614,614,614,614,614,614,614,614,614,613,613,613,613,613,613,613,613,612,612,612,612,612,612,612,612,612,612,612,612,612,612,612,612,612,611,611,611,611,611,610,610,610,610,610,610,610,609,609,609,609,609,609,608,608,608,607,607,607,607,607,606,606,606,606,606,606,605,605,605,605,605,605,605,603,603,601,598,598,595,595,592,589,589,586,586,583,579,579,577,577,576,576,576,576,576,576,576,577,576,576,576,576,577,577,577,577,577,577,577,575,575,575,575,575,575,574,574,573,573,572,570,570,568,568,565,563,563,560,560,556,553,553,549,549,545,545,541,538,538,534,534,531,527,527,523,523,519,519,515,511,511,509,509,507,505,505,504,504,504,503,503,502,502,502,502,502,502,502,502,501,501,501,501,501,501,501,501,501,501,501,502,502,502,503,504,504,504,504,505,506,506,507,507,507,507,508,508,509,509,509,509,509,509,510,510,510,510,511,511,511,512,512,512,512,512,513,513,513,513,514,514,514,514,515,515,515,515,515,515,515,516,516,516,516,516,516,515,515,515,514,514,512,511,511,509,509,507,506,504,502,502,500,500,499,497,497,497,497,497,497,497,497,497,497,497,497,497,497,447,446,446,445,444,444,443,443,442,441,441,439,439,436,436,435,433,433,431,431,429,429,429
659,658,658,658,657,657,657,657,657,656,656,656,656,656,655,655,654,654,654,654,654,654,653,653,653,653,653,653,654,654,654,654,654,654,654,654,656,656,656,657,657,657,657,657,657,657,657,657,657,657,657,657,656,656,656,656,655,654,654,654,653,653,652,652,652,652,652,651,651,651,651,652,652,652,652,652,652,652,652,652,651,651,651,650,650,649,649,649,647,647,647,647,647,647,647,647,647,647,647,647,647,646,645,645,645,645,645,643,643,643,642,642,641,641,640,639,639,639,639,639,639,639,639,639,639,639,639,639,639,640,639,639,639,639,639,639,639,639,639,639,639,639,639,639,639,639,639,639,639,639,639,639,638,638,638,638,638,637,637,637,637,637,637,637,637,637,637,637,636,636,636,635,635,635,635,635,635,635,634,634,634,634,634,634,634,634,633,633,633,633,633,633,633,633,633,633,633,633,633,633,633,633,632,631,631,631,631,630,629,629,629,628,628,628,628,627,626,626,626,627,626,626,626,626,626,626,626,626,626,626,626,555,555,552,552,552,552,552,552,552,553,553,554,555,555,556,557,557,560,564,564,570,589,589,589,598,606,606,612,618,618,619,619,619,620,621,621,621,621,621,621,621,621,535,535,534,534,534,534,535,535,535,535,535,536,536,536,537,537,538,539,539,539,540,540,541,541,541,542,542,543,544,544,545,546,546,547,547,548,549,549,552,561,570,570,570,597,597,597,606,615,615,615,616,616,616,616,616,616,616,616,616,616,616,616,616,616,616,616,616,615,615,615,614,614,614,614,614,614,614,614,614,614,614,614,614,614,614,613,613,613,613,613,613,613,613,612,612,612,612,612,612,612,612,612,612,612,612,612,612,612,612,612,611,611,611,611,611,610,610,610,609,609,609,609,609,609,609,609,608,608,608,608,608,607,607,607,606,606,606,606,606,606,606,606,605,605,605,605,605,604,604,603,603,601,598,598,595,595,592,589,589,587,587,583,581,581,578,578,577,577,577,577,577,577,577,578,577,577,577,577,577,577,577,577,577,577,577,577,577,577,577,577,577,577,577,573,573,572,570,570,568,568,565,563,563,560,560,557,553,553,549,549,545,545,542,539,539,535,535,532,527,527,523,523,519,519,515,512,512,509,509,507,505,505,504,504,504,503,503,502,502,502,502,502,502,502,502,501,501,501,501,501,501,501,501,501,501,501,502,502,502,503,504,504,504,504,505,506,506,507,507,507,507,508,508,509,509,509,509,509,509,510,510,510,510,511,511,511,512,512,512,512,512,513,513,513,514,514,514,515,515,515,515,515,515,515,515,515,515,515,515,515,515,515,514,514,513,512,512,511,511,509,507,507,505,505,502,500,500,499,499,497,497,497,497,497,497,497,497,497,497,497,497,497,497,497,497,446,446,445,444,444,444,444,443,441,441,439,439,437,437,435,434,434,431,431,429,429,429
659,658,658,658,657,657,657,657,657,656,656,656,656,656,655,655,654,654,654,654,654,654,653,653,653,653,653,653,653,653,653,654,654,654,654,654,655,656,656,656,656,657,657,657,657,657,657,657,657,657,657,657,656,656,656,656,655,654,654,654,653,653,652,652,652,652,652,651,651,651,651,652,652,652,652,652,652,652,651,651,650,650,650,650,650,648,647,647,647,646,646,646,647,647,647,647,647,646,646,646,646,646,645,645,645,644,644,643,643,643,641,641,641,641,640,639,639,639,639,639,639,639,639,639,639,639,639,639,639,640,639,639,639,639,639,639,639,639,639,639,639,639,639,639,639,639,639,639,639,639,639,639,638,638,638,638,638,637,637,637,637,637,637,637,637,637,637,637,637,637,636,635,635,635,635,635,635,635,634,634,634,634,634,634,634,634,633,633,633,633,633,633,633,633,633,633,633,633,633,633,633,633,632,631,631,631,631,630,629,629,628,628,628,628,628,627,626,626,626,626,626,626,626,626,626,626,626,626,626,626,626,555,555,552,551,551,551,551,551,551,552,552,553,554,554,555,555,555,558,562,562,566,573,573,573,573,573,612,612,618,618,619,619,619,619,619,619,619,619,619,619,619,619,535,535,534,534,534,534,535,535,535,535,535,536,536,536,537,537,538,539,539,539,540,540,541,541,541,542,542,543,544,544,545,546,546,547,548,548,549,549,552,561,570,570,570,596,596,596,605,615,615,615,616,616,616,616,616,616,616,616,616,616,616,616,616,616,616,615,615,615,615,614,614,614,614,614,614,614,614,614,614,614,614,614,614,614,614,613,613,613,613,612,612,612,612,612,612,612,612,612,612,612,612,612,612,612,612,612,612,612,612,612,611,611,611,610,610,609,609,609,609,609,609,609,609,608,608,608,608,608,607,607,607,607,607,607,606,606,606,606,606,606,606,606,605,605,605,605,605,604,604,603,603,601,599,599,596,596,593,590,590,587,587,584,582,582,579,579,578,578,578,578,578,578,578,578,578,578,578,578,578,578,578,578,578,578,578,578,578,578,578,578,578,573,573,573,573,572,570,570,568,568,565,563,563,560,560,557,553,553,549,549,545,545,542,539,539,535,535,532,527,527,523,523,519,519,515,512,512,509,509,507,505,505,504,504,504,503,503,502,502,502,502,502,502,502,502,501,501,501,501,501,501,501,501,501,501,501,502,502,502,503,504,504,504,504,505,506,506,507,507,507,508,508,508,509,509,509,509,509,510,510,510,511,511,512,512,512,512,513,513,513,513,513,514,514,514,515,515,515,515,515,515,515,515,515,515,515,515,515,515,515,515,515,514,514,513,512,512,511,511,509,507,507,505,505,502,500,500,499,499,497,495,495,495,495,495,495,495,495,495,495,495,495,495,495,495,446,446,445,444,444,444,444,443,441,441,439,439,437,436,435,434,434,431,431,429,427,427
659,658,658,658,657,657,657,657,657,655,655,655,656,656,654,654,654,654,654,654,653,653,653,653,653,653,653,653,653,653,653,653,653,654,654,654,655,656,656,656,656,657,657,657,657,658,658,658,658,657,657,657,657,657,657,657,656,655,655,654,654,654,652,652,652,652,652,651,651,651,651,652,652,652,652,652,652,652,651,651,650,650,650,650,650,648,647,647,647,646,646,646,647,647,647,647,647,646,646,646,646,646,645,645,645,644,644,643,643,643,641,641,641,641,640,639,639,639,638,638,638,638,638,638,638,638,639,639,639,639,639,639,639,639,639,639,639,639,639,638,638,638,637,637,637,637,637,637,637,637,637,637,637,637,637,637,637,637,637,637,637,637,637,637,637,637,637,637,637,637,637,636,636,636,635,635,635,635,635,635,635,634,634,634,634,634,633,633,633,633,633,633,633,633,633,633,633,633,633,633,633,633,632,631,631,630,630,630,629,629,628,628,628,628,628,627,627,627,627,626,626,626,626,626,626,626,626,626,626,626,626,626,626,552,551,551,551,551,551,551,552,552,553,554,554,555,555,555,558,562,562,566,573,573,573,573,573,573,618,618,618,619,619,619,619,619,619,619,619,619,619,619,534,534,534,533,533,534,534,534,534,534,534,534,535,535,535,536,536,537,538,538,539,540,540,541,541,541,542,542,543,544,544,545,546,546,547,548,548,549,549,551,560,569,569,569,596,596,596,605,615,615,615,615,615,616,616,616,616,616,616,616,616,616,616,616,616,615,615,615,614,614,614,614,614,614,614,614,614,614,614,614,614,614,614,614,614,614,613,613,613,613,612,612,612,612,612,612,612,612,612,612,612,612,612,612,612,612,612,612,612,612,612,611,611,611,610,610,609,609,609,609,609,609,609,609,608,608,608,608,608,607,607,607,607,607,606,606,606,606,606,606,606,606,605,605,605,605,605,605,604,604,603,603,601,599,599,596,596,593,590,590,587,587,584,582,582,579,579,578,578,578,578,578,578,578,578,578,578,578,578,578,578,578,578,578,578,578,578,578,578,578,578,578,573,573,573,573,572,570,570,568,568,566,564,564,561,561,557,553,553,549,549,545,545,542,539,539,536,536,533,528,528,523,523,519,519,516,512,512,509,509,507,505,505,504,504,504,503,503,502,502,502,502,502,502,502,502,501,501,501,501,501,501,501,501,501,502,502,502,502,502,503,504,504,505,505,505,506,506,507,507,507,508,508,508,509,509,509,509,509,510,510,510,511,511,512,512,512,512,513,513,513,513,513,514,514,514,515,515,515,515,515,515,515,515,515,515,515,515,514,514,514,513,513,513,513,512,511,511,509,509,507,506,506,504,504,501,499,499,497,497,496,494,494,494,494,494,494,494,494,494,494,494,494,494,494,494,446,446,445,444,444,443,443,443,441,441,439,439,437,436,436,435,435,433,431,430,427,427
658,658,658,657,657,657,657,657,657,655,655,655,656,656,654,654,654,654,654,654,653,653,653,653,653,653,653,653,653,653,653,653,653,654,654,654,655,656,656,657,657,657,658,658,658,659,659,659,659,659,659,658,658,658,657,657,656,656,656,654,654,654,652,652,652,651,651,651,651,651,651,652,652,652,652,652,651,651,650,650,650,650,650,650,650,647,647,647,646,646,646,646,646,646,646,646,646,645,645,645,645,645,645,645,645,644,644,643,643,642,641,641,640,640,639,639,639,638,638,638,638,638,638,638,638,638,639,639,639,639,639,639,639,639,639,639,639,639,638,637,637,637,637,637,637,637,637,637,637,637,637,637,637,637,637,637,637,637,637,638,638,638,638,637,637,637,637,637,637,637,637,637,637,636,635,635,635,635,635,635,635,635,634,634,634,634,634,634,634,634,634,634,634,634,633,633,633,633,633,633,633,633,632,631,631,630,630,629,629,629,628,628,628,628,628,627,626,626,626,626,626,626,626,617,617,617,617,617,617,617,617,617,617,551,551,551,550,550,550,550,551,551,552,553,553,553,553,553,555,555,558,561,561,566,566,566,566,566,618,618,618,619,619,619,619,619,619,619,619,619,619,619,533,533,533,533,533,533,533,533,533,534,534,534,534,535,535,536,536,537,538,538,538,540,540,540,541,541,542,542,543,544,544,545,546,546,547,548,548,549,549,551,560,569,569,569,596,596,596,606,616,615,615,615,615,616,616,616,616,616,616,616,616,616,616,616,616,615,615,615,614,614,614,614,614,614,614,614,614,614,614,614,614,614,614,614,614,614,613,613,613,612,612,612,612,612,612,612,612,612,612,612,612,612,612,612,612,612,612,612,612,612,611,611,611,611,610,610,609,609,609,609,609,608,608,608,608,608,608,608,608,607,607,607,606,606,606,606,606,606,606,605,605,605,605,605,605,604,604,604,603,603,603,603,601,599,599,596,596,593,591,591,588,588,586,583,583,581,581,580,579,579,579,580,580,580,580,580,580,581,581,581,581,581,581,581,581,581,581,581,581,581,581,581,581,581,573,573,572,570,570,569,569,567,564,564,561,561,558,554,554,550,550,546,546,543,540,540,537,537,533,528,528,523,523,519,519,516,512,512,509,509,507,505,505,504,504,503,502,502,502,502,502,502,502,502,501,501,501,501,501,501,501,501,501,501,501,502,502,502,502,502,503,504,504,504,504,505,506,506,507,507,507,508,508,508,509,509,509,510,510,510,511,511,511,511,512,512,512,512,513,513,513,514,514,514,514,515,515,515,515,515,515,515,515,515,515,515,514,514,513,513,513,513,513,513,513,512,511,511,509,509,507,506,506,504,504,501,499,499,497,497,496,494,494,494,494,494,494,494,494,494,494,494,494,494,494,494,446,446,445,444,444,443,443,443,441,441,439,439,438,436,436,435,435,433,431,430,427,427
658,658,658,657,657,657,657,657,656,655,655,655,655,655,654,654,654,654,654,654,653,653,653,653,653,652,652,652,653,653,653,653,653,654,654,654,655,656,656,657,657,657,658,658,658,659,659,659,659,659,659,658,658,658,657,657,656,656,656,654,654,654,652,652,652,651,651,651,650,650,650,651,651,651,652,652,651,651,650,650,650,649,649,649,649,647,646,646,645,645,645,645,645,645,645,645,645,645,645,645,645,645,645,645,645,644,644,643,643,642,641,641,640,640,639,639,639,638,638,638,638,638,638,638,638,638,639,639,639,639,639,639,639,639,639,639,639,639,638,637,637,637,637,637,637,637,637,637,637,637,637,637,637,637,637,637,637,637,637,638,638,638,638,637,637,637,637,637,637,637,637,637,637,636,635,635,635,635,635,635,635,635,634,634,634,634,634,634,634,634,634,634,634,634,633,633,633,633,633,633,632,632,631,631,631,630,630,629,629,629,628,628,628,627,627,627,626,626,626,626,626,626,626,617,617,617,617,617,617,617,617,553,553,550,549,549,549,549,549,549,550,550,552,553,553,553,553,553,555,555,558,561,561,566,566,566,566,566,566,566,566,566,566,566,566,566,566,566,566,566,566,566,533,533,533,533,533,533,533,533,533,534,534,534,534,535,535,536,536,537,538,538,538,540,540,540,541,541,542,542,543,544,544,545,546,546,547,548,548,549,549,551,560,569,569,569,596,596,596,606,615,615,615,615,615,616,616,616,616,616,616,616,616,616,616,615,615,615,614,614,614,614,614,614,614,613,613,613,613,614,614,614,614,614,613,613,613,613,613,612,612,612,612,612,612,612,612,612,612,612,612,612,612,612,612,611,611,611,611,611,611,611,611,611,611,610,610,610,609,609,609,609,609,608,608,608,608,608,608,608,608,607,607,607,606,606,606,606,606,606,606,605,605,605,605,605,605,604,604,604,603,603,603,603,601,599,599,596,596,594,591,591,589,589,587,584,584,582,582,580,579,579,579,580,580,580,580,580,580,581,581,581,581,581,581,581,581,581,581,581,581,581,581,581,574,574,573,573,572,570,570,569,569,567,564,564,561,561,558,554,554,550,550,546,544,543,540,540,537,537,533,528,528,524,524,519,519,516,512,512,509,509,506,505,505,504,504,503,502,502,502,502,502,502,502,501,501,501,501,501,501,501,501,501,501,501,501,502,502,502,502,502,503,504,504,504,504,505,506,506,507,507,507,508,508,508,509,509,509,510,510,510,511,511,512,512,512,512,512,513,513,513,514,514,514,515,515,515,515,515,515,515,515,515,515,515,515,515,514,514,513,513,513,512,512,511,511,510,509,509,508,508,506,505,505,503,503,500,499,499,497,497,495,494,494,494,494,494,494,494,494,494,494,494,494,494,494,494,446,446,445,444,444,443,443,443,441,441,439,439,438,436,436,435,435,433,430,430,426,426
658,657,657,657,657,657,657,657,656,655,655,655,654,654,654,654,654,654,654,653,653,653,653,653,653,652,652,652,653,653,653,653,653,654,654,654,656,656,656,657,657,658,659,659,659,659,659,659,659,659,659,659,659,659,658,658,657,656,656,654,654,654,652,652,652,651,651,651,650,650,650,651,651,651,652,652,651,651,650,650,650,649,649,649,649,647,646,646,645,645,645,645,645,645,645,645,645,645,645,645,645,645,644,644,644,643,643,643,643,642,641,641,640,640,639,639,639,638,638,638,637,637,637,637,638,638,638,638,638,639,639,639,639,638,638,638,638,638,637,637,637,637,637,637,637,637,637,637,637,637,637,637,637,637,637,637,637,637,637,637,637,638,638,637,637,637,637,637,637,637,637,637,637,636,636,636,635,635,635,635,635,635,634,634,634,634,634,634,634,634,634,634,634,634,633,633,633,633,633,633,632,632,631,631,631,630,630,629,629,629,628,628,628,627,627,627,626,626,626,626,626,626,626,626,626,626,626,626,626,626,626,553,553,550,549,549,549,549,549,549,550,550,550,551,551,552,552,552,553,553,554,556,556,558,558,558,558,558,558,558,558,558,558,558,558,558,558,558,533,533,532,532,532,532,532,532,532,532,532,532,532,533,533,533,533,534,534,535,535,536,537,537,538,539,539,540,541,541,542,542,543,544,544,545,545,545,547,548,548,549,549,552,561,570,570,590,590,598,598,607,615,615,615,615,615,616,616,615,615,615,615,616,616,616,616,615,615,615,614,614,614,614,614,614,614,613,613,613,613,614,614,614,614,614,613,613,613,613,613,612,612,612,612,612,612,612,612,612,612,612,612,612,612,612,612,611,611,611,611,611,611,611,611,611,611,610,609,609,609,609,609,608,608,608,608,608,608,608,608,607,607,607,607,607,606,606,606,606,606,605,605,605,605,605,604,604,604,603,603,603,603,603,602,602,601,599,599,596,595,594,591,591,589,588,587,584,584,582,582,582,581,581,581,581,582,582,582,582,582,582,582,584,584,584,584,584,584,584,584,584,584,584,584,584,574,574,573,573,572,571,571,569,569,567,565,565,562,562,559,555,555,551,551,547,544,544,541,541,538,538,534,529,529,524,524,520,520,516,512,512,509,509,506,505,505,504,504,503,502,502,502,502,502,502,502,501,501,501,501,501,501,501,501,501,501,502,502,502,502,502,502,502,503,504,504,504,504,505,506,506,507,507,507,508,508,508,509,509,509,510,510,510,511,511,512,512,512,512,512,513,513,513,514,514,514,515,515,515,515,515,515,515,515,515,515,515,515,514,513,513,512,512,512,511,511,510,510,509,508,508,508,508,506,504,504,503,503,499,499,499,497,497,495,495,495,495,495,495,495,495,495,495,495,495,495,495,495,495,446,446,445,444,444,443,443,443,441,441,439,439,438,436,436,435,435,433,430,430,426,426
658,657,657,657,657,657,657,657,656,655,655,655,654,654,654,654,654,654,654,653,653,653,653,653,653,653,653,653,653,653,653,654,654,654,654,654,656,657,657,657,657,658,659,659,659,659,659,659,659,659,659,659,659,659,658,658,657,656,656,654,654,654,652,652,651,650,650,650,650,650,650,650,650,651,651,650,650,650,649,649,649,648,648,648,648,647,646,646,645,645,645,645,645,645,645,645,645,645,645,645,645,644,644,644,643,643,643,643,643,641,641,641,640,639,639,639,639,638,637,637,637,637,637,637,637,637,638,638,638,639,638,638,639,638,638,638,638,638,637,637,637,637,637,637,637,637,637,637,637,637,637,637,637,637,637,637,637,637,637,637,637,638,638,637,637,637,637,637,637,637,637,637,637,636,636,636,635,635,635,635,635,635,634,634,634,634,634,634,634,634,634,634,634,634,633,633,633,633,633,633,632,632,631,630,630,629,629,629,628,628,628,628,628,627,627,626,626,626,626,626,626,626,626,621,621,621,621,621,621,621,621,553,553,548,548,548,548,548,548,548,548,548,549,550,550,550,550,550,550,550,550,551,551,558,558,558,558,558,558,558,558,558,558,558,558,533,533,532,532,532,532,532,532,532,532,531,531,532,532,532,532,533,533,533,533,534,534,535,535,536,537,537,538,539,539,540,541,541,542,542,543,544,544,545,545,545,547,548,548,549,549,554,563,572,572,590,590,600,600,609,616,616,615,615,615,616,616,615,615,615,615,616,615,615,615,614,614,614,614,614,614,613,613,613,613,613,613,613,613,614,614,614,614,614,613,613,613,613,613,612,612,612,612,612,612,612,612,612,612,612,612,612,611,611,611,611,611,611,611,611,611,611,610,610,610,609,609,609,608,608,608,608,608,608,608,608,608,608,608,607,607,607,607,606,606,606,606,605,605,605,605,605,604,604,603,603,603,603,603,603,603,603,602,602,601,599,599,597,595,595,592,592,590,588,588,586,586,584,583,583,582,582,582,583,583,583,583,583,583,583,583,584,584,584,584,584,584,584,584,584,584,584,584,584,584,584,573,573,572,571,571,569,569,568,565,565,562,562,559,555,555,551,551,547,544,544,541,541,538,538,534,529,529,524,524,519,519,516,512,512,508,508,506,504,504,504,504,502,502,502,502,502,501,501,501,501,501,501,501,501,501,501,501,501,501,502,502,502,502,502,503,503,503,504,504,504,505,505,506,506,507,507,507,508,508,508,509,509,509,510,510,510,511,511,512,512,512,512,512,513,513,513,514,514,514,515,515,515,515,515,515,515,515,515,515,515,515,514,513,513,512,512,512,511,511,510,510,509,508,508,508,508,508,504,504,504,504,499,499,499,499,499,499,499,499,499,499,499,499,499,499,499,499,499,499,499,499,499,446,446,445,444,444,443,443,443,441,441,439,439,438,436,436,435,435,432,430,429,425,425
658,657,657,657,657,657,656,656,655,655,655,655,654,654,654,654,654,653,653,653,653,653,653,653,653,653,653,653,653,653,653,654,654,654,654,654,656,657,657,657,657,658,659,659,659,659,659,659,660,659,659,659,659,659,657,657,656,656,656,654,654,654,652,652,651,650,650,650,650,650,650,650,650,650,650,650,650,650,649,649,649,648,648,648,648,647,646,646,645,645,645,645,645,645,645,645,645,645,645,645,645,644,644,644,643,643,643,643,643,641,641,641,640,639,639,639,639,638,637,637,637,637,637,637,637,637,638,638,638,639,638,638,639,638,638,638,638,638,637,637,637,636,636,636,636,636,636,636,636,636,636,637,637,637,637,637,637,637,637,637,637,638,638,637,637,637,637,637,637,637,637,637,637,636,636,636,635,635,635,635,635,635,634,634,634,634,634,634,634,634,634,634,634,634,633,633,633,633,633,633,631,631,631,630,630,629,629,629,628,628,628,627,627,627,627,626,626,626,626,626,626,625,625,621,621,621,621,621,621,621,621,621,621,548,548,548,548,548,548,548,548,548,549,550,550,550,550,550,550,550,550,551,551,551,551,551,551,551,551,551,551,551,551,551,551,533,533,532,532,532,532,532,532,532,532,531,531,531,531,532,532,532,533,533,533,533,533,535,535,536,537,537,538,539,539,540,541,541,542,542,543,544,544,544,545,545,546,547,547,549,549,554,563,572,572,590,590,600,600,609,616,616,615,615,615,615,615,615,615,615,615,615,615,614,614,614,614,614,614,614,613,613,613,613,613,613,613,613,613,613,614,613,613,613,613,613,613,613,612,612,612,612,612,612,612,612,612,612,612,612,612,612,611,611,611,611,611,611,611,611,611,611,610,610,610,609,609,609,608,608,608,608,608,608,608,608,608,608,608,607,607,607,607,606,606,606,606,605,605,605,605,605,604,604,603,603,603,603,603,603,603,603,602,602,600,599,599,597,595,595,592,592,590,588,588,586,586,584,583,583,582,582,582,583,583,583,583,583,583,583,583,584,586,586,586,586,586,586,586,586,586,586,586,586,586,586,573,573,572,571,571,569,568,568,565,565,563,562,561,557,557,552,552,549,545,545,542,542,539,536,534,529,529,524,524,519,519,516,512,512,508,508,505,504,504,504,504,502,502,502,502,502,501,501,501,501,501,501,501,501,501,501,501,501,501,502,502,502,502,502,503,503,504,504,504,505,505,505,506,506,507,507,507,508,509,509,509,509,509,510,510,511,511,511,512,512,512,512,512,513,513,513,514,514,514,515,515,515,515,515,515,515,515,515,515,514,514,514,513,513,512,512,511,510,510,509,509,508,507,507,506,506,504,503,503,502,502,499,499,499,499,499,499,499,499,499,499,499,499,499,499,499,499,499,499,499,499,499,446,446,445,444,444,443,443,443,441,441,439,439,438,436,436,435,435,432,432,428,424,424
658,657,657,657,657,657,656,656,655,655,655,655,654,654,654,654,654,653,653,653,653,653,653,653,653,653,653,653,653,653,653,654,654,654,654,654,656,657,657,657,658,658,659,659,659,659,659,659,660,659,659,659,659,659,657,657,656,656,656,654,654,654,652,652,651,651,651,650,650,650,650,650,650,650,650,650,650,650,649,649,649,647,647,647,647,646,645,645,645,645,645,644,644,644,644,644,644,644,644,644,644,643,643,643,643,643,643,642,642,641,641,641,640,639,639,639,639,638,637,637,637,637,637,637,637,637,638,638,638,638,638,638,638,638,638,638,637,637,637,637,637,636,636,636,636,636,636,636,636,636,636,636,636,637,637,637,637,637,637,637,637,637,637,637,637,637,637,637,637,637,637,637,637,636,636,636,635,635,635,635,635,635,634,634,634,634,634,634,634,634,634,634,634,634,633,633,633,633,633,633,631,631,631,630,630,629,629,629,628,628,628,627,627,627,627,626,626,626,626,626,626,625,625,621,621,621,621,621,621,621,621,621,621,548,546,546,546,546,546,546,547,547,547,548,548,548,548,548,548,548,548,548,548,548,548,548,548,548,548,548,533,533,533,533,533,532,532,532,532,532,531,531,531,530,530,530,531,530,530,531,531,531,532,532,533,533,533,534,534,536,536,536,538,539,539,540,541,541,541,541,542,543,543,544,545,545,545,547,547,550,550,555,565,574,574,593,593,602,602,610,616,616,616,616,615,615,615,615,615,615,615,615,615,614,614,614,614,614,614,614,613,613,613,613,613,613,613,613,613,613,614,613,613,613,613,613,613,613,612,612,612,612,612,612,612,612,612,612,612,611,611,612,611,611,611,611,611,611,611,611,610,610,610,609,609,609,608,608,608,608,608,607,607,607,607,607,607,607,607,607,607,606,606,606,606,606,605,605,605,604,604,604,603,603,603,603,603,602,602,602,602,602,602,601,600,599,599,597,595,595,593,593,591,589,589,587,587,585,584,584,584,584,584,584,585,585,585,585,585,585,585,586,586,586,586,586,586,586,586,586,586,586,586,586,586,586,573,573,572,571,571,569,568,568,567,567,564,562,562,558,558,554,554,550,546,546,543,543,540,536,536,530,530,524,524,520,520,516,512,512,509,509,505,504,504,504,504,502,502,502,502,502,501,501,501,501,501,501,501,501,501,501,501,501,501,502,502,502,502,502,503,503,504,504,504,505,505,505,506,506,507,507,507,508,509,509,509,509,509,510,510,511,511,511,512,512,512,512,512,513,513,513,514,514,514,515,515,515,515,515,515,515,515,515,515,514,514,513,512,512,511,511,510,510,510,509,509,507,507,507,505,505,504,503,503,502,502,500,499,499,499,499,499,499,499,499,499,499,499,499,499,499,499,499,499,499,499,499,499,499,445,444,444,443,443,443,441,441,440,440,438,437,437,435,435,432,432,428,424,424
