391,391,392,392,392,393,393,393,393,393,394,394,394,394,394,394,395,395,395,396,396,396,397,397,397,398,398,398,399,399,400,400,400,401,401,402,402,402,403,404,404,404,405,405,405,405,406,407,407,408,408,408,409,410,410,411,411,411,413,413,413,414,414,415,415,415,416,416,416,417,417,417,417,417,418,418,418,419,419,419,420,421,421,421,421,422,423,423,423,424,424,425,426,426,427,427,428,428,428,429,429,429,430,430,430,430,430,431,431,431,431,431,431,431,432,432,432,432,433,433,433,434,435,435,435,436,436,437,437,438,438,438,439,439,439,439,439,439,439,439,439,439,439,439,439,439,439,439,439,439,439,575,575,575,576,576,576,576,576,575,575,575,575,575,575,575,575,574,574,574,574,573,573,573,573,572,572,572,572,572,572,572,572,572,572,572,572,571,571,571,571,571,571,570,570,570,569,569,568,568,567,566,566,565,564,564,564,564,563,563,563,562,561,561,561,562,562,564,565,565,567,569,569,570,572,572,573,575,575,577,577,578,579,579,579,579,579,580,581,581,581,581,581,582,582,582,582,582,582,582,582,582,582,582,583,583,583,582,582,582,581,581,581,579,579,578,578,582,580,580,578,577,577,576,576,576,576,576,576,576,577,577,577,577,577,578,578,578,579,579,579,580,579,579,579,578,578,577,577,577,577,577,577,577,577,577,577,577,577,577,577,578,579,579,583,583,583,586,592,590,590,591,591,593,593,594,594,594,594,594,593,593,593,593,593,592,592,592,591,591,591,591,591,591,589,589,589,589,589,588,588,588,588,588,588,588,588,588,588,588,588,588,588,588,586,584,584,583,583,581,577,577,577,577,569,569,569,563,563,552,552,552,552,552,535,535,528,528,524,524,520,519,519,517,517,515,513,513,512,512,510,510,605,603,603,603,604,604,604,604,604,603,603,603,603,603,603,603,603,602,602,602,602,600,599,599,597,595,595,592,592,588,588,583,578,578,575,575,570,567,567,563,563,560,559,559,557,557,556,554,554,552,552,550,549,549,547,547,546,545,545,543,543,542,542,542,542,542,542,542,542,542,542,542,549,549,549,549,550,551,551,552,552,554,554,554,555,555,555,556,557,557,557,557,556,556,556,555,555,554,554,554,553,553,552,552,550,549,549,548,547,547,545,545,543,541,541,537,537,534,534,521,521,521,521,521,521,521,497,497,496,495,495,493,493,493,491,491,491,492,491,489,489,489,489,489,489,489,489,489,489,489,489,489,489,489,489,489,489,489,489,489,489,489,489,429,429,429,428,428,428,428,428,428,427,427,427,427,426,426,426,425,425,425,425,425,424,424,424,424,424,423,423,424,423,423,423,422,422,422,421,421,420,420,419,418,418,417,417,416,416,416,416,416,416,416,416,416,416,416,416,416,416,416,416,416,416,416,416,416,416,416,376,376,374,372,372,370,370,369
391,391,392,392,392,393,393,393,393,393,394,394,394,394,394,394,395,395,395,396,396,396,397,397,397,398,398,398,399,399,400,400,400,401,401,402,402,402,403,404,404,404,405,405,406,407,407,407,407,408,409,409,410,410,410,411,412,412,413,414,414,415,415,415,416,416,417,417,417,417,418,418,418,418,419,419,419,420,420,420,420,421,421,422,422,422,423,423,424,425,425,425,426,426,427,428,428,428,428,429,430,430,430,430,430,431,431,431,431,431,431,431,431,431,432,432,432,432,433,433,433,434,435,435,435,436,436,437,437,438,438,438,439,439,439,439,439,439,439,561,561,561,561,561,561,561,561,561,571,571,571,572,573,573,575,575,575,575,575,575,575,575,575,575,574,574,574,573,573,572,572,572,572,572,571,570,570,570,570,570,570,570,570,570,570,570,570,570,570,570,570,569,569,569,569,568,567,567,567,567,565,564,564,563,562,562,562,562,562,563,563,563,561,559,559,562,562,564,565,565,567,569,569,570,572,572,573,575,575,577,577,578,579,579,579,579,579,580,581,581,581,581,581,582,582,582,582,582,582,582,582,582,582,582,583,583,583,582,582,582,581,581,581,579,579,578,577,577,576,576,575,574,574,573,573,573,572,572,572,573,574,574,574,575,575,576,576,576,576,576,577,577,576,576,576,575,575,574,574,574,573,573,573,573,573,573,573,573,573,573,573,574,575,575,576,578,578,581,583,583,590,586,586,588,588,589,589,589,589,589,589,589,589,589,589,589,588,588,588,588,587,587,588,587,586,586,586,586,586,585,585,585,585,585,588,588,588,588,588,588,588,588,588,588,588,587,587,586,586,584,581,581,577,577,573,573,573,563,563,558,558,558,558,558,558,558,531,531,525,525,522,519,519,517,517,515,513,513,512,512,510,510,605,603,603,603,603,603,603,603,603,603,603,602,602,602,602,602,602,601,601,600,600,599,598,598,595,595,593,590,590,586,586,583,578,578,573,573,570,566,566,563,563,560,559,559,557,557,556,554,554,552,552,551,550,550,548,548,547,546,546,544,544,544,544,544,544,544,544,544,544,544,544,544,544,544,544,544,544,544,544,544,544,555,555,555,556,556,556,556,557,557,557,557,556,556,556,555,555,554,554,554,553,553,552,552,551,550,550,549,548,548,547,547,545,543,543,541,541,534,534,534,534,534,534,534,534,534,497,497,496,495,495,493,493,493,491,491,491,492,491,489,489,489,489,489,489,489,489,489,489,489,489,489,489,489,489,489,489,489,431,430,430,430,430,429,429,429,428,428,428,428,428,427,427,427,426,426,426,425,425,425,425,425,425,425,424,424,424,423,423,423,423,423,423,423,423,422,422,421,421,421,420,420,419,418,418,417,417,416,415,415,414,414,413,412,412,412,412,412,412,412,412,412,412,412,412,412,412,412,412,412,376,376,374,372,372,370,370,369
391,391,392,393,393,393,393,393,394,394,394,394,394,394,395,395,395,396,396,396,397,397,397,397,398,398,398,399,400,400,400,401,401,401,401,402,403,403,404,404,404,405,406,406,406,407,407,408,408,409,409,409,410,411,411,411,412,412,413,414,414,415,415,416,417,417,417,418,418,418,419,419,419,419,419,420,420,420,420,420,420,421,421,422,422,422,423,423,424,425,425,425,426,426,427,428,428,428,428,429,430,430,430,430,430,431,431,431,431,431,431,431,431,431,431,431,432,432,433,433,433,434,435,435,435,436,436,437,437,555,557,557,557,557,558,558,558,559,559,559,560,560,561,563,563,564,566,566,568,569,569,570,571,571,572,572,573,573,573,573,573,573,573,573,573,574,574,573,573,572,572,572,572,572,571,570,570,570,570,570,570,570,570,570,570,570,570,570,570,570,570,569,569,569,569,568,567,567,567,567,565,564,564,563,562,562,562,562,562,562,562,562,562,559,559,562,562,562,563,563,565,567,567,568,570,570,571,571,573,574,574,575,576,576,576,577,577,577,577,577,578,578,578,578,578,578,578,578,578,578,578,578,578,578,578,578,578,578,577,577,576,576,575,574,574,573,572,572,571,571,570,570,570,570,570,570,570,570,570,571,571,571,572,573,573,573,573,573,573,573,573,573,573,573,572,572,572,571,571,571,571,571,571,573,573,573,573,573,573,573,573,574,575,575,576,578,578,581,583,583,583,586,586,588,588,589,589,589,589,589,589,589,589,589,589,589,588,588,588,588,587,587,588,587,586,586,586,586,586,585,585,585,585,585,585,586,586,586,586,586,586,586,586,586,586,586,587,586,586,584,581,581,577,577,573,573,573,563,563,558,558,558,558,558,558,558,531,531,525,525,522,519,519,517,517,515,513,513,511,511,509,507,507,505,505,502,502,603,603,603,603,603,603,602,602,602,602,602,600,600,600,598,598,596,595,595,593,593,591,587,587,583,583,580,580,580,572,572,570,566,566,563,563,561,559,559,558,558,556,555,555,553,553,552,551,551,550,550,549,548,548,548,548,548,548,548,548,548,548,548,548,548,548,548,548,548,548,548,548,548,548,548,548,548,548,556,556,556,556,556,556,556,556,556,556,556,555,554,554,554,554,553,553,553,552,552,551,550,550,549,548,548,547,547,545,543,543,541,541,534,534,534,534,534,534,534,534,498,496,496,494,493,493,492,492,491,491,491,491,491,491,491,491,491,491,491,491,491,491,491,491,491,491,491,491,491,491,491,491,491,431,430,430,430,430,429,428,428,428,428,428,427,427,427,427,427,426,426,426,425,425,425,425,425,425,425,424,424,424,423,423,423,423,423,423,423,423,422,422,421,421,421,420,420,419,419,419,417,417,416,415,415,414,414,413,412,412,412,412,412,412,412,412,412,412,412,412,412,412,412,412,412,376,376,374,372,372,370,370,368
391,391,392,393,393,393,394,394,394,394,394,394,394,395,395,395,396,396,396,397,398,398,398,398,398,399,399,399,400,400,400,401,401,401,401,402,403,403,404,404,404,405,406,406,406,407,407,408,408,409,409,409,410,411,411,411,412,412,413,414,414,415,415,416,417,417,417,418,418,418,419,419,419,419,419,420,420,420,421,421,421,422,422,422,422,423,423,423,424,425,425,426,427,427,428,428,428,429,429,430,430,430,430,431,431,431,431,431,431,431,431,431,431,431,431,431,432,432,432,432,432,432,432,432,432,432,432,432,555,555,557,557,557,557,558,558,558,559,559,559,560,560,561,563,563,564,566,566,568,569,569,570,571,571,572,572,573,573,573,573,573,573,573,573,573,573,572,571,571,570,570,570,570,570,569,568,568,568,568,568,568,568,568,568,568,568,568,568,568,568,568,567,567,567,567,565,565,565,564,564,564,563,563,561,561,561,560,560,560,559,559,558,558,558,559,559,559,561,562,562,563,565,565,566,567,567,568,568,570,570,570,571,572,572,572,573,573,573,573,574,574,574,574,575,575,575,575,574,574,574,574,578,578,578,578,578,578,578,577,577,576,576,575,574,574,573,572,572,571,571,570,570,570,570,570,570,570,570,570,571,571,571,572,573,573,573,573,573,573,573,573,573,573,573,572,572,572,571,571,571,571,571,571,570,570,570,570,570,570,570,570,570,571,571,572,575,575,577,577,581,581,581,582,584,584,586,586,586,586,586,585,585,585,585,585,585,585,584,584,584,584,584,584,583,583,583,583,583,582,582,582,582,582,582,582,583,583,583,583,583,584,584,584,584,584,584,585,584,584,583,582,582,580,578,577,573,573,568,568,563,563,563,563,563,563,563,563,563,529,529,529,522,522,519,519,516,514,514,511,511,509,507,507,505,505,502,502,603,603,603,603,603,603,602,602,602,602,602,600,600,600,598,598,596,595,595,593,593,591,587,587,583,583,580,580,580,572,572,570,566,566,563,563,561,559,559,558,558,556,555,555,553,553,552,551,551,550,550,549,548,548,548,549,549,549,549,549,549,549,549,549,549,549,549,549,549,549,549,549,549,549,549,549,557,557,556,556,556,556,556,556,556,556,556,555,555,554,554,554,553,553,553,552,552,552,552,551,550,550,550,550,550,549,549,547,546,546,544,544,544,544,544,544,544,544,544,544,498,496,496,494,493,493,492,492,491,491,491,491,491,491,491,491,491,491,491,491,491,491,491,491,491,491,491,491,491,491,491,491,491,491,491,491,491,491,429,428,428,428,428,428,427,427,427,426,426,426,426,425,425,425,425,425,425,425,425,424,424,424,423,423,423,423,423,423,423,423,422,422,421,421,421,420,420,419,419,419,417,417,416,415,415,414,414,413,412,412,412,412,412,411,411,410,410,410,410,410,410,410,410,410,410,410,410,374,372,372,370,370,368
391,391,392,393,393,393,394,394,394,394,394,394,394,395,395,395,396,396,396,397,398,398,398,398,398,399,399,400,400,400,401,401,401,402,402,403,404,404,404,405,405,405,406,406,407,408,408,408,408,409,410,410,411,411,411,412,413,413,413,414,414,415,415,416,417,417,418,418,418,419,419,419,419,419,420,420,420,421,421,421,422,422,422,423,423,423,424,424,425,425,425,426,427,427,428,429,429,430,430,430,431,431,431,431,431,431,431,431,431,431,431,431,431,431,431,431,432,432,432,432,432,432,432,432,432,432,552,552,552,553,553,555,556,556,556,557,557,558,558,558,559,559,560,561,561,562,564,564,566,567,567,568,569,569,570,570,571,571,571,572,572,572,572,572,571,571,570,570,570,569,569,568,568,568,567,567,566,565,565,565,565,565,565,565,565,565,565,565,565,565,564,564,564,563,563,563,562,562,562,564,564,563,563,561,561,561,560,560,560,559,559,558,558,558,559,559,559,561,562,562,563,565,565,566,567,567,568,568,570,570,570,571,572,572,572,573,573,573,573,574,574,574,574,575,575,575,575,574,574,574,574,574,573,573,573,573,573,572,572,572,571,571,570,569,569,568,568,567,567,567,567,567,567,567,567,567,567,568,568,569,569,569,570,570,570,571,571,571,571,571,571,571,570,570,570,569,569,569,569,568,568,568,568,568,568,567,567,567,567,567,567,567,568,568,569,569,571,572,572,574,576,576,577,579,579,581,581,581,581,581,581,581,581,581,581,581,585,584,584,584,584,584,584,583,583,583,583,583,582,582,582,582,582,582,582,583,583,583,583,583,584,584,584,584,584,584,585,584,584,583,582,582,580,578,578,575,575,571,571,567,567,567,567,567,567,567,567,567,529,529,529,522,522,519,519,516,514,514,511,511,509,507,507,504,504,502,499,499,497,497,497,602,602,602,601,601,601,601,599,598,598,596,596,594,592,592,590,590,587,584,584,581,581,578,575,575,572,572,569,566,566,563,563,561,560,560,559,559,557,556,556,554,554,553,552,552,552,551,551,550,550,549,549,549,549,549,549,549,549,549,549,549,549,549,549,549,549,549,549,549,549,549,549,557,557,557,557,557,557,556,556,556,556,556,555,555,554,554,554,553,553,553,552,552,552,552,551,551,551,551,550,550,550,550,549,548,548,547,547,547,547,547,547,547,547,547,547,496,494,494,493,493,492,491,491,491,491,491,491,491,491,491,491,491,491,491,491,491,491,491,491,491,491,491,491,491,491,491,491,491,491,491,491,491,491,429,428,428,428,428,428,427,427,426,426,426,425,425,425,425,425,425,425,425,424,424,424,424,424,424,424,423,423,423,423,422,422,422,422,421,420,420,419,419,419,418,418,417,417,416,415,415,415,415,413,413,413,412,412,412,411,411,410,410,410,410,410,410,410,410,410,410,410,410,410,410,410,410,410,410
392,392,392,393,393,394,394,394,394,394,394,395,395,395,396,396,397,397,397,398,398,398,399,399,399,400,400,400,401,401,401,402,402,403,403,403,404,404,404,405,405,406,407,407,407,408,408,409,410,410,410,410,411,411,411,412,413,413,414,415,415,415,415,416,417,417,418,418,418,419,419,419,419,419,420,420,420,421,421,421,422,422,422,423,423,423,424,424,425,425,425,426,427,427,428,429,429,430,430,430,431,431,431,431,431,431,431,431,431,431,431,431,431,431,431,431,432,432,432,432,432,432,432,432,432,548,548,549,549,551,551,552,553,553,554,555,555,556,557,557,557,557,559,560,560,561,562,562,564,567,567,568,569,569,570,570,571,571,571,572,572,572,572,572,571,571,570,570,570,569,569,568,568,568,567,567,566,565,565,565,565,565,565,565,565,565,565,565,565,565,564,564,564,563,563,563,562,562,562,562,561,561,561,559,559,559,559,559,559,557,557,557,557,557,557,558,558,559,560,560,561,562,562,562,562,563,564,564,565,565,565,566,567,567,568,568,568,569,569,570,570,570,570,570,570,570,570,570,570,570,570,570,569,569,569,569,569,568,568,567,566,566,565,565,565,564,564,563,563,563,563,563,563,563,564,564,565,566,566,567,568,568,568,568,569,571,571,571,571,571,571,571,570,570,570,569,569,569,569,568,568,568,568,568,568,567,567,567,567,567,567,567,568,568,569,569,571,572,572,574,576,576,577,579,579,581,581,581,581,581,581,581,581,581,581,581,581,580,580,581,580,580,580,580,580,579,579,579,579,579,579,579,579,579,579,579,579,580,581,581,581,581,581,581,581,581,581,581,581,580,579,579,577,577,576,575,575,571,571,567,563,563,563,563,563,563,563,563,563,529,529,526,526,523,519,519,516,516,513,513,510,507,507,504,504,500,497,497,495,495,493,493,602,602,600,600,599,599,597,595,595,595,596,594,592,592,590,590,587,584,584,581,581,578,575,575,572,572,569,566,566,563,563,562,561,561,559,559,558,557,557,555,555,554,554,554,553,552,552,552,552,551,551,551,551,551,551,551,551,551,551,551,551,551,551,551,551,551,551,551,551,551,551,557,557,557,556,556,556,556,556,556,556,556,555,555,554,553,553,553,553,553,552,552,552,551,551,551,551,551,550,550,550,550,549,548,548,547,547,547,547,547,547,547,547,547,547,494,493,493,491,491,491,490,490,490,488,488,488,488,488,488,488,488,488,488,488,488,488,488,488,488,488,488,488,488,488,488,488,488,488,488,488,488,488,429,428,428,428,428,428,427,427,426,426,426,425,425,425,425,425,425,425,425,424,424,424,424,424,424,424,423,423,423,423,422,422,422,422,421,420,420,419,419,419,418,418,417,417,416,415,415,415,414,413,413,413,412,412,412,411,411,410,410,410,410,410,410,410,410,410,410,410,410,410,410,410,410,410,410
392,392,393,393,393,394,394,394,394,395,395,395,395,395,396,396,397,397,397,398,398,398,399,399,399,400,400,400,401,401,401,402,402,403,403,403,404,404,404,405,405,406,407,407,407,408,408,409,410,410,410,410,411,411,411,412,413,413,414,415,415,416,417,417,417,417,418,419,419,419,419,419,420,420,420,421,421,421,422,422,422,423,423,423,424,424,425,425,425,426,426,427,428,428,429,430,430,430,431,431,431,431,431,431,431,431,432,432,432,431,431,432,432,432,432,432,432,432,432,432,432,432,432,432,432,548,548,549,549,551,551,552,553,553,554,555,555,556,557,557,557,557,559,560,560,561,562,562,564,565,565,566,566,567,567,567,568,568,567,567,567,567,567,567,566,566,565,565,565,565,565,565,565,565,565,565,564,564,564,564,564,564,564,564,564,564,564,563,563,563,562,562,561,561,561,560,560,560,559,559,559,558,558,557,557,556,556,556,556,555,555,555,555,555,555,555,555,556,557,557,558,558,558,559,559,560,560,560,561,561,561,562,562,562,568,568,568,569,569,570,570,570,570,570,570,570,570,570,570,570,570,570,569,569,569,569,569,568,568,567,566,566,565,565,565,564,564,563,563,563,563,563,563,563,564,564,565,566,566,567,568,568,568,568,569,569,569,569,569,569,569,569,568,568,568,567,567,566,566,566,566,566,565,565,565,565,565,565,565,565,564,564,565,565,566,566,567,568,568,570,571,571,573,575,575,576,577,577,577,577,577,577,577,577,577,577,577,576,576,576,576,576,576,576,576,576,576,576,575,575,575,575,575,575,575,576,576,576,576,576,576,576,576,577,577,577,577,577,577,577,579,579,577,577,576,575,575,572,572,568,563,563,563,563,563,563,563,563,563,535,535,531,531,527,523,523,519,519,515,515,512,508,508,504,504,500,497,497,495,495,493,493,602,602,600,600,599,599,597,595,595,593,593,591,588,588,586,586,583,581,581,578,578,576,573,573,571,571,569,566,566,563,563,562,561,561,559,559,558,557,557,555,555,554,554,554,553,552,552,552,552,551,551,551,551,551,551,551,551,551,551,551,551,551,551,551,551,551,551,551,556,556,557,557,557,556,556,556,556,556,556,556,556,555,554,554,554,553,553,552,552,552,552,552,552,551,551,551,551,551,551,551,551,551,551,550,550,550,550,550,550,550,550,550,550,550,550,494,493,493,491,491,491,490,490,490,488,488,488,488,488,488,488,488,488,488,488,488,488,488,488,488,488,488,488,488,488,488,488,488,488,488,488,430,430,429,428,428,428,428,428,427,427,426,425,425,425,425,425,425,425,425,425,425,424,424,424,424,424,424,424,423,423,423,423,422,422,421,421,421,420,420,419,419,419,418,418,417,417,416,415,415,414,414,414,413,413,413,413,413,412,412,411,411,411,411,411,411,411,411,411,411,411,411,411,411,411,411,411,411
392,392,393,393,393,393,394,394,394,395,395,395,395,396,397,397,397,398,398,398,399,399,399,400,400,400,400,401,401,401,402,402,402,403,403,403,404,404,405,405,405,406,407,407,408,408,408,409,410,410,410,410,411,412,412,412,413,413,414,415,415,416,417,417,417,417,418,419,419,419,420,420,421,421,421,421,422,422,422,422,422,422,422,422,422,422,422,422,422,422,422,422,422,422,430,430,430,430,431,431,431,431,431,431,431,431,432,432,432,431,431,432,432,432,432,432,432,432,432,539,539,541,541,542,544,544,546,546,548,549,549,551,552,552,553,553,553,554,555,555,556,556,557,558,558,559,560,560,561,561,561,562,562,563,563,563,563,563,562,562,562,561,561,561,560,560,560,560,560,560,560,560,561,561,561,561,561,561,561,561,561,561,561,564,564,564,564,563,563,563,562,562,561,561,561,560,560,560,559,559,559,558,558,557,557,556,556,556,556,555,555,555,555,555,555,555,555,556,557,557,558,558,558,559,559,560,560,560,561,561,561,562,562,562,563,563,563,564,564,564,564,564,564,564,565,565,565,565,565,565,565,565,564,564,564,564,564,563,563,563,562,562,562,562,561,561,561,561,560,560,560,561,561,562,562,562,563,564,564,565,566,566,567,567,567,567,567,567,567,567,567,567,566,566,565,565,565,564,564,564,564,564,564,564,564,563,563,563,563,563,563,563,564,564,564,564,565,566,566,570,571,571,573,575,575,576,577,577,577,577,577,577,577,577,577,577,577,576,576,576,576,576,576,576,576,576,576,576,575,575,575,575,575,575,575,576,576,576,576,576,576,576,576,577,577,577,577,577,577,576,575,575,574,574,572,571,571,569,569,567,563,563,558,558,554,549,549,549,549,535,535,531,531,527,523,523,519,519,515,514,512,508,508,503,503,499,496,496,493,493,491,491,489,489,600,600,598,598,594,592,592,590,590,587,586,586,582,582,579,578,578,576,576,574,572,572,570,570,568,565,565,564,564,562,561,561,560,560,559,557,557,556,556,555,554,554,554,553,553,553,553,553,553,553,553,553,553,553,553,553,553,553,553,553,553,553,553,553,553,553,556,556,557,557,557,556,556,556,556,556,556,556,556,555,554,554,554,553,553,552,552,552,552,552,552,551,551,551,551,551,551,551,551,551,551,550,550,550,551,551,551,551,551,551,551,551,551,494,493,493,491,491,491,490,490,489,488,488,486,486,484,483,483,481,481,480,480,480,479,479,479,479,479,479,479,479,479,479,479,479,479,479,479,430,430,428,428,428,428,428,427,427,427,426,425,425,425,425,424,424,424,424,424,424,424,424,424,424,424,423,423,423,423,423,423,422,422,421,421,421,420,420,419,419,419,418,418,417,417,416,415,415,414,414,414,413,413,413,413,413,412,412,412,412,412,412,412,412,412,412,412,412,412,412,412,412,412,412,412,412
392,392,393,393,393,393,394,394,395,395,395,396,396,396,397,397,398,398,398,399,400,400,400,401,401,401,401,402,402,402,402,403,403,403,404,404,404,404,405,406,406,406,407,407,408,408,408,409,410,410,410,410,411,412,412,412,413,413,414,415,415,416,417,417,417,417,418,419,419,419,420,420,421,421,421,421,422,422,422,422,422,422,422,422,422,422,422,422,422,422,422,422,422,422,422,422,422,422,422,422,422,422,422,422,422,422,422,422,422,422,422,422,422,422,422,422,532,532,533,533,536,538,538,540,542,542,544,544,545,547,547,549,552,552,553,553,553,554,555,555,556,556,557,558,558,559,560,560,561,561,561,562,562,563,563,563,563,563,562,562,562,561,561,561,560,560,560,560,560,560,560,560,561,561,561,561,561,561,561,561,561,561,561,561,561,560,560,560,560,560,559,559,559,558,558,557,557,557,556,556,556,555,555,554,554,554,553,553,553,552,552,552,552,552,552,552,552,553,553,553,554,554,554,555,555,556,557,557,557,557,557,558,558,558,559,559,559,559,559,560,559,559,560,560,560,560,560,560,560,560,560,560,560,560,560,560,560,559,559,558,558,558,558,558,558,558,558,558,560,560,560,561,561,562,562,562,563,564,564,565,566,566,567,567,567,567,567,567,567,567,567,567,566,566,565,565,565,564,564,564,564,564,564,564,564,563,563,563,563,563,563,563,564,564,564,564,565,566,566,567,568,568,569,575,571,571,571,572,572,572,572,572,572,572,572,572,572,572,572,572,572,572,572,572,572,572,572,572,571,571,571,571,571,571,572,572,572,572,572,572,572,572,572,572,572,572,572,572,572,571,571,571,570,570,568,567,567,565,565,563,560,560,558,558,554,549,549,546,546,542,542,542,542,542,526,526,522,522,518,514,514,509,509,503,503,499,496,496,493,493,491,491,489,489,600,600,598,598,594,592,592,590,590,587,586,586,582,582,579,578,578,576,576,574,572,572,570,570,568,565,565,564,564,563,562,562,561,561,559,558,558,557,556,555,554,554,554,553,553,553,553,553,553,553,553,553,553,553,553,555,555,556,556,556,556,556,556,555,555,555,555,555,555,555,555,555,554,554,554,554,554,554,554,553,553,553,552,552,552,551,551,551,551,551,551,551,551,551,551,551,551,551,551,551,551,551,551,551,551,551,551,551,551,551,551,551,551,551,492,492,491,491,490,489,489,488,487,487,485,485,484,483,483,481,481,480,480,480,479,479,479,479,479,479,479,479,479,479,479,479,479,479,479,479,479,428,428,428,428,428,427,427,427,426,425,425,425,425,424,424,424,424,424,424,424,424,424,424,424,423,423,423,423,423,423,422,422,421,421,420,419,419,419,419,418,418,418,417,417,416,415,415,414,414,414,413,413,413,413,413,412,412,412,412,412,412,412,412,412,412,412,412,412,412,412,412,412,412,412,412
392,392,393,393,393,393,394,394,395,395,395,396,396,396,397,397,398,398,398,399,400,400,400,401,401,401,401,402,402,402,402,403,403,403,404,404,404,404,405,406,406,406,407,407,408,408,408,410,410,410,411,411,411,412,412,413,413,413,414,415,415,416,417,417,418,418,419,419,419,420,420,420,420,420,420,420,420,420,420,420,420,420,420,420,420,420,420,420,420,420,420,420,420,420,420,420,420,420,420,420,420,420,420,420,420,420,420,420,420,420,420,420,420,420,420,420,532,532,533,533,536,538,538,540,542,542,544,544,545,547,547,549,550,550,551,552,552,552,552,554,554,554,555,556,556,556,557,557,557,557,557,557,557,556,556,556,556,555,554,554,554,561,561,555,555,555,555,555,555,555,556,556,556,556,556,556,555,555,556,556,556,556,556,557,557,557,557,556,556,556,556,556,555,554,554,554,554,554,553,553,553,553,553,552,552,551,551,551,550,550,550,549,549,549,549,549,549,553,553,553,554,554,554,555,555,556,557,557,557,557,557,558,558,558,559,559,559,559,559,560,559,559,560,560,560,560,560,560,560,560,560,560,560,560,560,560,560,559,559,558,558,558,558,558,558,558,558,558,558,559,559,559,559,560,561,561,562,562,562,563,564,564,564,564,565,565,565,564,564,564,564,564,564,564,563,563,563,563,563,563,563,563,563,562,562,562,562,562,562,562,562,562,562,562,562,562,563,563,563,564,565,565,565,565,567,567,567,567,568,568,568,568,568,568,568,569,569,569,569,569,569,569,569,569,569,569,569,569,568,568,568,568,568,568,572,572,572,572,572,572,572,572,572,572,572,572,572,572,572,571,571,571,570,570,568,567,567,565,565,563,560,560,558,558,554,550,550,546,546,542,542,542,542,542,530,530,530,530,530,516,516,509,509,503,503,499,496,496,493,493,490,490,487,485,485,485,597,597,593,592,589,589,590,587,586,582,579,579,577,576,576,573,573,572,571,571,570,570,568,565,565,564,564,563,562,562,561,561,559,558,558,557,556,556,555,555,554,554,554,553,553,553,553,553,553,553,553,553,553,553,553,554,554,554,554,553,553,553,553,553,553,553,553,553,553,552,552,552,552,552,554,554,554,553,553,553,552,552,552,551,551,551,551,551,551,551,551,551,551,551,551,551,551,551,551,551,551,551,551,551,551,551,551,551,551,551,551,551,492,492,491,491,490,489,489,488,487,487,485,485,484,482,482,481,481,480,479,479,478,478,478,478,478,478,478,478,478,478,478,478,478,478,478,429,429,428,428,428,427,427,427,426,426,425,425,425,424,424,423,423,424,424,424,424,424,424,424,423,423,423,423,423,422,422,422,421,421,421,421,420,419,419,419,419,418,417,417,417,417,416,415,415,414,414,414,414,414,413,413,413,412,412,412,412,412,412,412,412,412,412,412,412,412,412,412,412,412,412,412,412
392,393,393,394,394,394,395,395,396,397,397,397,398,398,399,399,399,399,399,400,401,401,401,401,401,401,401,402,402,402,403,403,403,404,404,404,405,405,405,406,406,406,407,407,408,408,408,408,408,408,408,408,408,408,408,408,408,408,408,408,408,408,408,408,408,408,408,408,408,408,408,408,408,408,408,408,408,408,408,408,408,408,408,408,408,408,523,523,523,522,522,522,522,522,521,520,520,520,520,520,520,520,520,520,520,520,520,520,520,520,520,526,526,526,527,529,529,530,531,531,533,533,536,538,538,540,541,541,542,544,544,546,547,547,548,548,548,549,549,550,550,550,551,552,552,552,552,552,552,551,550,550,550,550,549,548,548,547,547,547,547,547,547,547,549,549,555,555,555,555,556,556,556,556,556,556,555,555,556,556,556,556,556,557,557,557,557,556,556,556,556,556,555,554,554,554,554,554,553,553,553,553,553,552,552,551,551,551,550,550,550,549,549,549,549,549,549,549,550,550,550,550,551,551,551,552,553,552,552,552,553,553,553,554,554,554,554,554,554,555,555,555,556,556,556,556,556,557,557,557,557,557,556,556,556,556,556,556,556,555,555,555,555,555,555,556,556,556,556,556,556,557,557,558,559,559,559,560,560,561,562,562,562,562,563,563,562,562,562,562,562,562,562,562,562,561,561,561,561,561,561,561,561,562,562,562,562,562,562,562,562,562,562,562,562,562,563,563,563,564,565,565,565,565,567,567,567,567,568,568,568,568,568,568,568,569,569,569,569,569,569,569,569,569,569,569,569,569,568,568,568,568,568,568,568,568,568,568,568,568,568,568,568,568,568,568,567,567,567,567,567,565,564,564,563,562,562,561,561,559,557,557,555,555,552,550,550,546,546,542,541,541,538,538,530,530,530,530,530,516,516,511,511,505,505,500,496,496,493,493,489,489,486,483,483,481,481,478,475,475,475,584,584,584,584,579,577,577,575,575,573,572,572,571,570,570,569,569,568,566,566,564,564,563,562,562,561,561,560,559,559,557,556,556,555,555,554,554,554,553,553,553,553,553,553,553,553,553,553,553,553,554,554,554,554,553,553,553,553,553,553,553,553,553,553,552,552,552,552,552,552,551,551,551,551,551,550,550,550,550,550,550,549,549,549,550,550,550,550,550,550,551,551,551,551,551,551,550,550,550,550,550,550,550,550,550,550,550,492,492,491,491,490,489,489,488,486,486,485,485,483,482,482,480,480,479,478,478,478,478,478,478,478,478,478,478,478,478,478,478,478,478,478,429,429,428,428,428,427,427,426,425,425,425,425,425,424,424,423,423,424,424,424,424,424,424,424,423,423,423,423,423,422,422,422,421,421,421,421,420,419,419,419,419,418,417,417,417,417,416,415,415,415,414,414,414,414,413,413,413,413,413,413,413,413,413,413,413,413,413,413,413,413,413,413,413,413,413,413,413
393,394,394,395,396,396,397,397,398,398,398,399,399,399,400,401,401,401,401,401,401,401,401,402,402,402,403,402,402,402,403,403,403,404,404,404,405,405,405,406,406,406,407,407,408,408,408,408,408,408,408,408,408,408,408,408,408,408,408,408,408,408,521,521,521,521,521,521,521,521,521,521,521,521,521,521,522,522,522,522,522,522,522,522,522,522,522,522,522,521,521,521,521,521,520,520,520,519,519,519,519,519,519,519,520,520,520,520,522,522,522,524,525,525,527,529,529,530,531,531,533,533,536,538,538,540,541,541,542,544,544,546,547,547,548,548,548,549,549,550,550,550,551,552,552,552,552,552,552,551,550,550,550,550,549,548,548,547,547,547,547,547,547,547,549,549,549,549,549,549,549,550,550,550,550,550,550,550,549,549,549,549,550,550,550,550,550,550,550,550,551,551,550,550,551,550,550,550,550,550,550,550,550,549,549,549,549,549,548,548,547,546,546,546,546,546,546,546,546,546,547,547,547,547,547,548,548,548,549,549,549,549,549,550,550,550,550,550,551,551,551,551,551,551,552,552,553,553,553,553,553,553,556,556,556,556,556,556,556,555,555,555,555,555,555,556,556,556,556,556,556,557,557,558,559,559,559,560,560,561,562,562,562,562,563,563,562,562,562,562,562,562,562,562,562,561,561,561,561,561,561,561,560,560,560,560,560,560,560,561,560,560,560,560,561,561,561,561,561,561,565,561,561,561,562,563,563,562,562,562,562,562,563,564,564,564,564,564,564,564,565,565,565,566,567,566,566,566,565,565,565,564,564,564,564,564,563,563,563,562,562,562,562,562,562,562,562,562,562,561,561,560,559,559,558,558,557,556,556,555,554,554,552,552,551,549,549,547,547,544,541,541,538,538,534,534,534,534,534,534,534,534,534,534,534,502,497,497,493,493,489,489,486,483,483,481,481,478,475,475,475,584,584,584,584,579,577,577,575,575,573,572,572,571,570,570,569,569,568,566,566,564,564,563,562,562,561,561,560,559,559,557,556,556,555,555,554,553,553,552,552,551,551,551,551,550,550,550,550,549,549,550,550,550,550,550,550,550,550,550,550,550,550,550,550,550,549,549,549,549,549,548,548,548,548,548,547,547,547,547,547,547,547,548,548,548,548,548,549,549,549,549,549,550,550,550,550,549,544,544,544,529,529,529,529,529,529,529,492,492,491,491,490,489,489,488,486,486,485,485,483,482,482,480,480,479,478,478,478,478,478,478,478,478,478,478,478,478,478,478,478,478,478,429,429,428,428,428,427,427,426,425,425,425,424,424,423,423,423,423,423,423,423,423,423,423,423,423,423,423,423,423,422,422,422,421,421,421,421,420,419,419,419,419,418,417,417,417,416,416,415,415,415,414,414,414,414,413,413,413,413,413,413,413,413,413,413,413,413,413,413,413,413,413,413,413,413,413,413,413
393,394,394,395,396,396,397,397,398,398,398,399,399,399,400,401,401,401,401,401,401,401,401,402,402,402,403,403,403,403,403,403,403,403,403,403,405,405,405,406,406,407,407,407,407,407,407,407,407,407,407,407,407,407,407,519,519,519,519,519,519,519,519,520,521,521,521,521,521,521,521,521,521,521,521,521,522,522,522,522,522,522,522,522,522,522,522,522,522,521,521,521,521,521,520,520,520,519,519,519,519,519,519,519,520,520,520,520,522,522,522,524,525,525,527,528,528,529,530,530,533,533,534,535,535,537,539,539,540,541,541,543,544,544,544,544,545,545,545,546,547,547,547,548,547,547,546,545,545,543,543,542,541,541,541,540,540,539,539,539,540,540,540,541,541,541,542,542,542,542,542,543,543,543,543,543,543,543,543,542,542,542,543,543,543,543,543,543,544,543,543,544,544,545,545,545,545,545,546,546,546,550,550,549,549,549,549,549,548,548,547,546,546,546,546,546,546,546,546,546,547,547,547,547,547,548,548,548,549,549,549,549,549,550,550,550,550,550,551,551,551,551,551,551,552,552,553,553,553,553,553,553,553,553,554,554,553,553,553,552,552,552,552,553,553,553,553,553,554,554,554,555,555,555,556,556,557,557,557,557,557,558,559,559,560,560,560,560,560,560,560,560,560,560,559,559,558,558,558,558,558,558,557,557,557,557,557,557,557,558,558,558,558,558,558,558,558,558,557,557,557,557,557,557,558,559,559,559,558,558,558,558,559,559,559,559,559,564,564,564,565,565,565,566,567,566,566,566,565,565,565,564,564,564,564,564,563,563,563,562,562,562,562,562,562,562,562,562,562,561,561,560,559,559,558,558,557,556,556,555,554,554,552,552,551,549,549,547,547,544,541,541,538,538,534,534,533,533,533,533,533,533,533,533,533,502,497,497,493,493,489,489,486,482,482,479,479,476,474,474,471,471,471,579,579,576,573,573,572,572,571,571,571,570,569,569,568,568,567,566,566,564,564,563,562,562,561,561,560,559,559,557,556,556,554,554,553,552,552,551,551,549,549,549,548,548,548,547,547,546,546,547,547,550,550,550,550,550,550,550,550,550,550,550,550,550,549,549,549,549,549,548,548,548,548,548,547,547,547,547,547,547,547,548,548,548,548,548,549,549,549,549,549,550,550,550,550,549,544,544,544,529,529,529,529,529,529,529,492,492,490,490,489,489,489,488,486,486,484,484,483,482,482,480,480,479,478,478,478,478,478,478,478,478,478,478,478,478,478,478,478,478,478,429,429,428,427,427,426,426,426,425,425,424,424,424,423,423,423,423,423,423,423,423,423,423,423,423,423,423,423,422,422,422,421,421,421,421,421,420,419,419,419,419,418,417,417,417,416,416,416,416,415,415,415,414,414,414,414,414,413,413,413,413,413,413,413,413,413,413,413,413,413,413,413,413,413,413,413,413
395,396,396,397,397,397,399,400,400,400,400,401,401,401,403,403,403,403,403,403,403,403,403,403,403,403,403,403,403,403,403,403,403,403,403,403,403,403,403,403,403,403,403,403,403,403,403,403,403,403,403,403,403,403,403,519,519,519,519,519,519,519,519,519,519,519,520,520,520,520,520,520,520,520,520,520,520,520,520,520,521,521,521,521,521,521,521,521,521,521,521,520,520,520,519,519,519,519,519,519,519,519,519,519,519,519,519,519,520,521,521,522,523,523,526,527,527,527,529,529,530,530,532,533,533,534,536,536,537,538,538,540,541,541,542,542,542,543,543,543,544,544,544,544,543,543,542,540,540,540,543,542,541,541,541,540,540,539,539,539,540,540,540,541,541,541,542,542,542,542,542,543,543,543,543,543,543,543,543,542,542,542,543,543,543,543,543,543,544,543,543,544,544,545,545,545,545,545,546,546,546,547,547,547,547,546,546,546,545,545,544,544,544,544,544,544,543,543,543,543,544,544,544,544,544,544,544,544,545,545,545,545,545,545,545,546,546,546,546,547,547,547,547,548,548,548,549,550,550,550,550,550,550,550,550,550,550,550,550,550,550,550,550,550,550,551,551,551,551,551,552,552,552,553,554,554,554,554,554,554,554,555,555,555,556,560,560,560,560,560,560,560,560,560,559,559,558,558,558,558,558,558,557,557,557,557,557,557,557,558,558,558,558,558,558,558,558,558,557,557,557,557,557,557,558,559,559,559,558,558,558,558,559,559,559,559,559,559,559,559,559,560,560,560,561,561,561,561,560,560,560,560,559,559,559,558,558,558,557,557,557,556,556,556,556,556,556,556,556,556,556,555,554,554,554,554,553,552,552,551,551,551,549,549,549,548,548,547,547,545,543,543,541,541,537,536,533,532,532,532,532,532,532,532,532,532,532,532,494,494,489,489,486,481,481,477,477,475,474,472,471,471,471,579,579,576,573,573,572,572,571,571,571,570,569,569,568,568,567,566,566,564,564,563,562,562,561,561,560,559,559,557,556,556,554,554,553,552,552,551,551,549,549,549,548,548,548,547,547,546,546,547,547,548,548,548,548,548,548,548,548,548,548,548,548,547,547,547,546,546,546,545,545,545,545,545,544,544,544,544,545,545,545,545,545,546,546,546,547,547,547,548,548,548,549,549,549,546,544,540,540,529,529,529,529,529,529,529,492,492,490,490,489,488,488,488,486,486,484,484,483,481,481,480,480,479,478,478,478,478,477,477,477,477,477,477,477,477,477,477,477,477,477,429,429,428,427,427,426,426,426,425,425,424,424,424,423,423,423,423,423,423,423,423,423,423,423,423,423,423,423,422,422,422,421,421,421,421,421,420,419,419,419,419,418,417,417,417,416,416,416,416,415,415,415,414,414,414,414,414,413,413,413,412,412,412,412,412,412,412,412,412,412,412,412,412,412,412,412,412
397,397,397,399,399,399,400,402,402,402,402,401,401,401,403,403,403,403,403,403,403,403,403,403,403,403,403,403,403,403,403,403,403,403,403,403,403,403,403,403,403,403,403,511,511,511,512,512,512,513,515,515,515,516,516,517,517,517,518,518,518,518,518,518,519,519,519,519,519,519,519,519,519,519,519,519,519,519,519,519,519,519,519,519,519,519,519,519,520,520,520,519,519,519,519,519,519,519,519,519,519,519,519,519,519,519,519,519,520,521,521,522,523,523,526,527,527,527,529,529,530,530,532,533,533,534,536,536,537,538,538,540,541,541,542,542,542,543,543,543,544,544,544,544,543,543,542,540,540,538,538,536,535,535,535,540,532,532,532,532,532,533,533,533,533,534,534,534,535,535,535,535,535,536,536,536,536,536,536,536,536,536,536,536,536,536,536,537,537,537,537,537,538,539,539,539,540,540,541,541,542,542,542,543,543,543,543,543,543,543,542,542,542,541,541,541,541,541,541,541,541,541,541,541,541,541,541,541,541,541,541,542,542,542,542,546,546,546,546,547,547,547,547,548,548,548,549,550,550,550,550,550,550,550,550,550,550,550,550,550,550,550,550,550,550,551,551,551,551,551,552,552,552,553,554,554,554,554,554,554,554,555,555,555,556,556,555,555,555,556,556,556,555,555,555,555,554,554,554,553,553,553,553,553,553,553,554,554,554,555,555,555,555,555,555,555,554,554,554,554,554,554,554,554,554,554,554,554,554,554,554,554,554,554,554,555,555,555,555,554,554,554,554,555,555,556,556,555,555,555,554,554,554,553,553,553,553,552,551,551,551,550,550,550,550,550,550,550,550,550,556,555,554,554,554,554,553,552,552,551,551,551,549,549,549,548,548,547,547,545,544,544,541,541,539,536,536,532,532,532,532,532,532,532,532,532,532,532,495,495,491,491,486,481,481,477,477,475,474,472,470,470,467,467,465,465,571,571,570,570,569,568,568,568,568,568,567,567,566,565,565,564,564,563,562,562,561,560,560,558,558,557,555,555,553,553,551,549,549,548,548,547,546,546,546,546,546,545,545,544,544,545,545,546,546,546,546,546,546,546,546,546,546,546,546,545,544,544,544,544,543,543,543,542,542,542,542,542,542,542,542,542,543,543,543,544,544,546,547,547,547,548,548,548,549,549,549,546,546,540,540,540,540,540,540,540,540,540,492,492,490,490,489,488,488,488,486,486,484,484,483,481,481,480,480,480,478,478,478,478,477,477,477,477,477,477,477,477,477,477,477,477,477,429,429,428,427,427,426,426,426,425,425,424,424,424,423,423,423,423,423,423,423,423,423,423,423,423,423,422,422,422,422,422,421,421,421,420,420,419,419,419,418,418,418,417,417,417,417,417,416,416,415,415,415,415,415,414,414,414,413,413,413,412,412,412,412,412,412,412,412,412,412,412,412,412,412,412,412,412
397,397,397,399,399,399,400,402,402,403,403,404,404,404,404,405,405,405,405,405,405,405,405,405,405,405,405,405,405,405,405,405,405,405,405,405,405,405,405,405,509,509,509,509,510,510,510,512,512,513,515,515,515,516,516,517,517,517,518,518,518,518,518,518,519,519,519,519,519,519,519,519,519,519,519,519,519,519,519,519,519,519,519,519,519,519,519,519,520,520,520,519,519,519,519,519,519,518,518,517,517,517,517,517,517,517,517,517,518,519,519,520,521,521,523,524,524,525,525,526,527,527,528,529,529,530,531,531,532,533,533,535,535,537,538,538,539,540,540,540,540,540,540,539,538,538,535,535,533,531,531,529,529,529,527,527,526,526,526,526,526,526,527,527,527,528,529,529,530,531,531,531,531,532,532,531,531,531,530,530,530,530,530,530,536,536,536,537,537,537,537,537,538,539,539,539,540,540,541,541,542,542,542,543,543,543,543,543,543,543,542,542,542,541,541,541,541,541,541,541,541,541,541,541,541,541,541,541,541,541,541,542,542,542,542,542,543,543,543,543,543,544,544,544,545,545,546,547,547,547,547,547,547,547,547,548,547,547,547,547,547,547,547,548,548,548,549,549,549,549,549,549,549,550,550,550,551,550,550,550,550,551,551,551,551,551,551,551,551,552,552,552,552,551,550,550,550,549,549,549,549,549,549,549,549,549,550,550,550,550,552,552,552,551,551,551,551,551,551,551,551,554,554,554,554,554,554,554,554,554,554,554,554,554,554,555,555,555,555,554,554,554,554,555,555,556,556,555,555,555,554,554,554,553,553,553,553,552,551,551,551,550,550,550,550,550,550,550,550,550,550,550,550,550,549,549,549,548,548,548,548,547,547,547,546,546,545,545,545,544,543,543,541,541,539,536,536,532,532,531,527,527,527,527,527,527,527,527,495,495,491,491,486,480,480,477,477,473,473,470,468,468,465,465,463,463,568,568,567,567,567,567,567,567,566,566,565,565,564,564,564,563,563,562,561,561,560,559,559,557,557,555,553,553,551,551,551,549,549,548,548,547,546,546,546,546,546,545,545,544,544,545,545,546,546,546,546,546,546,546,546,546,546,546,546,545,544,544,544,544,543,543,543,542,542,542,542,542,542,542,542,542,543,543,543,544,544,544,545,545,545,546,546,546,546,547,547,542,542,535,535,535,535,535,535,535,535,535,492,492,490,490,489,488,488,488,486,486,484,484,483,481,481,480,480,480,478,478,477,477,477,477,477,477,477,477,477,477,477,477,477,477,477,429,429,428,427,427,426,426,425,425,425,424,423,423,423,423,423,422,422,422,422,422,422,423,422,422,422,422,422,422,422,422,421,421,421,420,420,419,419,419,418,418,418,417,417,417,417,417,416,416,415,415,415,415,415,414,414,414,413,413,413,412,412,412,412,412,412,412,412,412,412,412,412,412,412,412,412,412
398,399,399,400,400,400,401,403,403,403,403,404,404,404,404,405,405,405,405,405,405,405,405,405,405,405,405,405,405,405,405,405,405,405,405,405,405,405,405,405,509,509,509,509,510,510,510,511,511,512,513,513,514,515,515,515,515,516,516,516,517,517,517,517,517,517,517,517,517,518,518,518,518,518,518,518,518,518,518,518,518,518,518,518,518,519,519,519,519,519,519,519,518,518,518,518,518,516,516,516,516,516,515,515,515,515,515,515,516,516,516,518,519,519,520,520,520,521,521,522,523,523,524,525,525,525,526,526,527,527,528,529,529,537,538,538,539,540,540,540,540,540,540,539,538,538,535,535,533,531,531,529,529,529,527,527,526,526,526,526,526,526,527,527,527,528,529,529,530,531,531,531,531,532,532,531,531,531,530,530,530,530,530,530,530,530,530,530,530,530,531,531,532,532,532,533,533,534,535,535,536,538,538,538,539,539,540,540,540,540,539,539,539,538,538,538,538,538,538,538,538,538,538,538,538,538,538,539,539,539,539,539,539,539,539,540,540,540,540,540,540,541,541,541,541,541,542,542,542,543,543,543,543,543,544,544,544,544,544,544,544,544,544,545,545,546,546,546,546,546,549,549,549,550,550,550,551,550,550,550,550,551,551,551,551,551,551,551,551,552,552,552,552,551,550,550,550,549,549,549,549,549,549,549,549,549,550,550,550,550,552,552,552,551,551,551,551,551,551,551,550,550,550,549,549,549,549,549,549,549,549,549,549,549,549,550,549,549,549,549,549,549,549,550,550,550,550,550,550,550,549,549,548,548,548,547,547,547,546,546,545,545,545,545,545,545,545,545,545,545,545,545,545,545,545,545,545,545,545,545,545,544,544,544,543,543,543,542,542,541,541,541,539,539,538,537,537,534,534,531,527,527,527,527,527,527,527,527,527,527,493,493,487,480,480,477,477,473,473,470,468,468,465,465,463,463,568,568,567,567,567,567,567,567,566,566,565,565,564,564,564,563,563,562,561,561,560,559,559,557,557,555,553,553,551,551,549,547,547,546,546,545,544,544,543,543,543,542,542,542,542,542,542,543,543,543,544,544,543,543,543,543,543,543,543,542,542,542,541,541,541,541,541,541,540,540,540,541,541,541,541,541,541,541,541,542,542,542,542,542,543,546,546,546,544,544,547,542,542,535,535,535,535,535,535,502,495,495,492,492,491,490,490,488,488,488,486,486,484,484,483,482,482,481,481,480,478,478,477,477,477,477,477,477,477,477,477,477,477,477,477,477,477,429,429,428,427,427,426,426,425,425,425,424,423,423,423,423,423,422,422,422,422,422,422,423,422,422,422,422,422,422,421,421,421,421,421,420,420,419,419,419,418,418,417,417,417,417,416,416,415,415,415,415,415,414,414,414,414,414,413,413,413,412,412,412,412,412,412,412,412,412,412,412,412,412,412,412,412,412
398,399,399,400,400,400,401,403,403,403,403,403,403,403,404,405,405,405,405,405,405,405,405,405,405,405,405,405,405,405,405,405,405,405,405,405,405,507,507,508,508,508,508,508,508,508,509,510,510,511,512,512,512,513,513,514,514,515,515,515,515,515,515,516,516,516,516,516,516,517,517,517,517,517,517,517,517,517,517,517,517,517,518,518,518,519,519,519,519,519,519,519,518,518,518,518,518,516,516,516,516,516,515,515,515,515,515,515,516,516,516,518,519,519,520,520,520,521,521,522,523,523,524,525,525,525,526,526,527,527,528,529,529,531,532,532,533,533,533,534,534,534,534,533,531,531,529,529,527,526,526,524,524,523,523,523,523,523,523,523,523,523,523,524,524,526,527,527,527,527,527,527,527,527,527,526,526,526,525,525,525,525,525,525,525,525,525,526,526,526,526,526,527,527,527,528,528,529,530,530,532,532,532,533,533,534,535,535,535,535,535,535,534,534,534,534,534,534,534,538,538,538,538,538,538,538,538,539,539,539,539,539,539,539,539,540,540,540,540,540,540,541,541,541,541,541,542,542,542,543,543,543,543,543,544,544,544,544,544,544,544,544,544,545,545,546,546,546,546,546,547,547,547,547,547,547,547,547,547,550,546,546,547,546,546,546,547,547,547,547,547,546,546,546,545,545,544,544,544,544,544,544,544,549,549,545,545,545,545,545,546,547,547,547,547,546,546,545,545,545,545,545,545,544,544,543,543,543,543,544,544,544,549,544,544,544,544,545,544,544,544,544,545,545,545,546,546,546,546,545,545,545,544,544,548,547,547,547,546,546,545,545,545,545,545,545,545,545,545,545,545,545,545,545,545,545,545,545,545,545,545,544,544,544,543,543,543,542,542,541,541,541,539,539,538,537,537,535,535,533,529,529,529,529,516,516,516,516,516,516,493,493,487,480,480,477,477,473,473,470,467,467,464,464,462,460,460,458,458,458,565,565,565,565,565,565,564,564,563,562,562,562,562,560,559,559,558,558,555,554,554,552,552,550,547,547,546,546,544,543,543,542,542,542,541,541,541,540,540,540,540,540,540,541,541,541,541,541,541,541,541,541,541,541,541,540,540,540,539,539,539,541,541,541,540,540,540,541,541,541,541,541,541,541,541,542,542,542,542,542,543,543,543,543,544,544,544,544,544,544,544,544,544,544,544,502,495,495,493,493,491,490,490,489,489,488,486,486,484,484,483,482,482,481,481,480,478,478,477,477,477,476,476,476,476,476,476,476,476,476,476,476,476,429,429,427,426,426,426,426,425,425,425,424,423,423,423,423,422,422,422,422,422,422,422,422,422,422,422,422,422,421,421,421,421,420,420,420,420,419,418,418,418,418,417,417,417,416,416,416,415,415,415,415,415,414,414,414,413,413,413,412,412,412,412,412,412,412,412,412,412,412,412,412,412,412,412,412,412,412
399,399,399,400,401,401,401,402,402,402,402,402,402,402,402,402,402,402,402,402,402,402,402,402,402,402,402,402,402,402,402,402,402,402,402,402,402,507,507,508,508,508,508,508,508,508,509,510,510,511,512,512,512,513,513,514,514,515,515,515,515,515,515,516,516,516,516,516,516,517,517,517,517,517,517,517,517,517,517,517,517,517,517,517,517,517,517,517,518,517,517,517,516,516,515,515,515,515,515,514,513,513,513,513,513,513,513,513,514,514,514,515,515,515,516,516,517,518,518,519,519,519,519,520,520,521,521,522,522,522,523,523,523,524,525,525,527,527,527,527,527,527,527,526,526,526,526,529,527,526,526,519,519,519,519,519,519,519,519,520,520,520,520,522,522,523,527,527,527,527,527,527,527,527,527,526,526,526,525,525,525,525,525,525,525,525,525,526,526,526,526,526,527,527,527,528,528,529,530,530,532,532,532,533,533,534,535,535,535,535,535,535,534,534,534,534,534,534,534,534,534,534,535,535,535,535,535,535,536,536,536,536,536,536,536,536,536,536,536,536,537,537,537,538,538,538,538,538,539,539,539,540,540,540,541,541,541,541,541,541,541,541,542,542,542,543,543,544,544,544,543,543,543,544,544,543,543,543,542,542,542,543,542,542,542,542,542,542,542,542,541,541,541,541,540,540,539,539,539,538,538,538,539,539,539,545,545,545,545,545,546,547,547,547,547,546,546,545,545,545,545,545,545,544,544,543,543,543,543,544,544,544,544,544,544,544,544,545,544,544,544,544,545,545,545,546,546,546,546,545,545,545,544,544,543,543,543,542,541,541,541,541,541,541,541,541,541,541,541,541,541,541,541,541,541,541,541,541,541,541,541,541,541,541,541,541,540,540,540,539,538,538,537,537,535,534,534,533,533,531,528,528,524,524,516,516,516,516,516,516,516,516,516,482,482,477,477,472,472,468,465,465,462,462,460,458,458,456,456,454,454,565,565,564,564,564,563,563,563,562,562,562,562,560,559,559,558,558,555,554,554,552,552,550,547,547,546,546,544,543,543,542,542,542,541,541,541,540,540,540,540,540,540,541,541,541,541,541,541,541,541,541,541,541,541,540,540,540,539,539,539,539,539,538,538,538,538,538,538,538,538,538,538,538,539,540,540,540,540,540,540,540,540,540,540,540,540,540,540,540,540,540,540,540,540,502,495,495,493,493,491,490,490,489,489,488,486,486,485,485,483,482,482,481,481,480,478,478,477,477,477,476,476,476,476,476,476,476,476,476,476,476,476,476,476,427,426,426,425,425,425,424,424,424,423,423,423,423,422,422,422,422,422,422,422,422,422,422,422,422,422,421,421,421,421,420,420,420,420,419,418,418,418,418,417,417,417,416,416,416,416,416,415,415,415,414,414,414,413,413,413,412,412,412,412,412,412,412,412,412,412,412,412,412,412,412,412,412,412,412
399,399,399,400,401,401,401,402,402,402,402,402,402,402,402,402,402,402,402,402,402,402,402,402,402,402,402,402,402,402,402,402,402,402,402,507,507,506,506,506,506,507,507,507,507,507,508,509,509,509,510,510,511,512,512,513,513,513,514,514,514,515,515,515,515,515,515,515,515,515,515,515,515,515,515,515,514,514,514,514,514,513,513,513,513,513,513,513,512,512,512,512,512,512,511,511,511,511,511,510,510,510,510,510,510,510,510,510,510,511,511,511,511,512,512,512,517,518,518,519,519,519,519,520,520,521,521,522,522,522,523,523,523,524,525,525,527,527,527,527,527,527,527,526,526,526,526,526,526,526,526,519,519,519,519,519,519,519,519,520,520,520,520,522,522,523,523,523,523,523,523,523,523,523,522,522,522,521,520,520,520,520,520,520,520,520,520,520,520,521,521,521,522,522,522,523,523,524,525,525,532,527,527,527,527,528,529,529,529,530,530,530,530,529,529,529,529,530,530,531,531,531,532,532,532,533,533,533,533,533,533,533,533,533,533,533,533,533,533,533,533,533,533,534,534,534,534,534,535,535,535,536,540,540,541,541,541,541,541,541,541,541,542,542,542,543,543,544,544,544,543,543,543,544,544,543,543,543,542,542,542,543,542,542,542,542,542,542,542,542,541,541,541,541,540,540,539,539,539,538,538,538,539,539,539,539,539,540,540,540,541,541,541,541,541,541,541,540,540,540,539,539,539,539,540,539,539,539,539,539,539,539,539,539,540,540,540,540,540,540,540,540,541,541,541,542,542,541,541,541,541,541,540,540,539,539,539,538,538,537,537,537,537,537,537,537,537,537,537,537,537,537,538,538,538,538,538,538,538,538,538,538,538,538,537,537,536,536,540,539,538,538,537,537,535,534,534,533,533,531,528,528,524,524,519,519,519,519,519,519,519,519,519,519,519,478,478,472,472,468,465,465,462,462,460,458,458,456,456,454,454,565,565,564,564,564,563,563,562,561,561,560,560,558,556,556,554,554,553,551,551,549,549,547,544,544,543,543,541,541,541,540,539,539,538,538,538,537,537,537,538,537,537,538,538,538,539,539,539,539,538,538,538,538,538,538,538,537,537,537,536,536,536,536,536,536,535,535,535,536,536,536,536,536,536,537,536,536,536,536,536,536,535,535,535,535,535,535,535,535,535,535,535,535,535,502,497,497,494,494,492,491,491,490,490,488,487,487,485,485,484,483,483,481,481,480,480,480,480,480,480,480,480,480,480,480,480,480,480,480,480,480,480,480,480,427,426,426,425,425,425,424,424,424,423,423,423,423,422,422,422,422,422,422,422,422,421,421,421,421,421,421,421,421,420,420,420,419,419,419,418,418,418,418,417,417,417,416,416,416,415,415,415,415,415,414,414,414,413,413,413,412,412,411,411,411,411,411,411,411,411,411,411,411,411,411,411,411,411,411
399,399,399,400,400,400,401,401,401,401,401,401,401,401,401,401,400,400,400,400,400,400,400,400,400,400,400,400,400,400,400,400,400,400,400,506,506,505,505,506,506,506,507,507,507,507,507,507,507,509,509,509,510,511,511,511,511,512,512,512,512,512,512,512,512,512,515,515,515,515,515,515,515,515,515,515,514,514,514,514,514,513,513,513,513,513,513,513,512,512,512,512,512,512,511,511,511,511,511,510,510,510,510,510,510,510,510,510,510,511,511,511,511,512,512,512,513,513,513,514,515,515,515,515,515,515,515,516,517,517,517,517,523,524,525,520,520,520,527,527,527,527,527,526,526,526,526,526,526,526,526,516,516,516,516,516,516,516,516,516,517,517,518,519,519,519,519,519,519,519,519,519,518,518,518,518,518,517,517,517,516,516,516,516,517,517,517,517,517,517,517,517,518,518,518,519,519,519,519,520,522,522,527,527,527,528,529,529,529,530,530,530,530,529,529,529,529,530,530,531,531,531,532,532,532,533,533,533,533,533,533,533,533,533,533,533,533,533,533,533,533,533,533,534,534,534,534,534,535,535,535,536,537,537,538,538,538,539,539,539,539,539,540,541,541,541,541,541,541,541,541,541,541,541,541,540,540,540,539,539,538,538,538,537,537,537,537,537,537,537,536,536,536,535,535,535,533,533,533,533,533,533,533,533,533,533,533,534,534,534,535,535,536,536,535,535,535,535,535,534,534,534,534,534,535,534,534,534,534,534,534,534,535,535,535,535,535,540,540,540,540,540,541,541,541,542,542,541,541,541,541,541,540,540,539,539,539,538,538,537,537,537,537,537,537,537,537,537,537,537,537,537,538,538,538,538,538,538,538,538,538,538,538,538,537,537,536,536,536,535,535,534,533,533,532,531,531,530,530,528,526,526,523,523,519,519,516,516,516,516,516,516,516,487,487,478,478,472,472,466,464,464,460,460,458,458,456,454,454,452,452,451,451,563,563,562,561,561,559,558,558,556,556,554,552,552,549,549,548,547,547,545,545,543,541,541,540,540,538,537,537,536,536,536,536,536,535,535,535,535,535,535,535,538,538,538,539,539,539,539,538,538,538,538,538,538,538,537,537,537,536,536,536,536,536,536,535,535,535,536,536,536,536,536,536,537,536,536,536,536,536,536,535,535,535,535,535,535,535,535,535,535,535,535,535,502,497,497,494,494,492,491,491,490,490,488,487,487,485,485,484,483,483,481,481,480,480,480,480,480,480,480,480,480,480,480,480,480,480,480,480,480,480,480,480,427,426,426,425,425,425,424,424,423,423,423,422,422,422,421,421,421,421,421,421,421,421,421,421,421,421,421,420,420,420,420,420,419,419,419,418,418,417,417,417,416,416,416,416,416,415,415,415,415,415,414,414,414,413,413,413,412,412,411,411,411,411,411,411,411,411,411,411,411,411,411,411,411,411,411
399,399,399,399,399,399,400,400,400,400,400,400,400,400,400,401,400,400,400,400,400,400,400,400,400,400,400,400,400,400,400,400,400,400,400,506,506,505,505,506,506,506,507,507,507,507,507,507,507,509,509,509,510,511,511,511,511,512,512,512,512,512,512,512,512,512,512,512,513,513,513,513,513,512,512,512,511,511,510,510,510,510,510,509,509,509,509,509,509,509,509,508,508,508,508,508,508,507,507,507,507,507,507,507,507,507,507,507,507,507,507,508,508,508,508,508,509,509,509,510,510,511,511,511,511,511,511,512,512,512,517,517,517,517,517,520,520,515,515,515,516,516,516,515,515,515,515,513,513,513,513,516,516,516,516,516,516,516,516,516,517,517,518,519,519,519,519,519,519,519,519,519,518,518,518,518,518,517,517,517,516,516,516,516,517,517,517,517,517,517,517,517,518,518,518,519,519,519,519,520,522,522,522,522,522,523,523,523,524,524,524,525,525,525,525,525,525,525,526,527,527,527,528,528,528,529,529,529,529,529,530,530,530,530,530,530,530,529,529,529,529,530,530,531,531,531,531,531,532,532,532,532,533,533,535,535,535,536,536,536,537,537,537,537,538,538,538,538,538,538,538,538,537,537,536,536,536,535,535,535,534,534,533,533,533,533,537,537,537,537,536,536,536,535,535,535,533,533,533,533,533,533,533,533,533,533,533,534,534,534,535,535,536,536,535,535,535,535,535,534,534,534,534,534,535,534,534,534,534,534,534,534,535,535,535,535,535,535,535,535,535,535,536,536,537,537,537,537,537,536,536,535,535,535,535,534,534,534,534,533,533,533,533,533,533,533,533,533,534,534,534,534,534,534,535,535,535,535,535,535,535,535,535,534,534,534,533,533,533,532,532,531,529,529,528,528,527,527,527,526,525,525,523,523,520,520,516,515,515,515,515,515,515,487,487,487,487,487,487,466,464,464,460,460,458,458,456,454,454,452,452,451,451,563,563,562,561,561,559,558,558,556,556,554,552,552,549,549,548,547,547,545,545,543,541,541,540,540,538,537,537,536,536,536,536,536,535,535,535,535,535,535,535,535,535,535,536,536,536,536,536,536,536,536,536,535,535,535,535,535,534,534,534,534,534,534,533,533,533,533,534,534,534,534,534,534,534,533,533,533,533,533,532,532,530,530,528,528,528,528,528,528,528,528,503,502,498,498,495,495,494,492,492,491,491,489,487,487,486,486,484,483,483,481,481,481,481,481,481,481,481,481,481,481,481,481,481,481,481,481,481,481,481,481,481,481,426,426,425,425,425,424,424,423,423,423,422,422,422,421,421,421,421,421,421,421,421,421,421,421,421,421,420,420,420,420,420,419,419,419,418,418,417,417,417,416,416,416,415,415,415,415,415,414,414,414,414,413,413,413,412,412,412,411,411,411,411,411,411,411,411,411,411,411,411,411,411,411,411,411
399,399,399,399,399,399,400,400,400,400,400,400,400,400,399,399,399,399,398,397,397,397,397,397,397,397,397,397,397,397,397,397,397,397,397,505,505,504,504,504,504,505,505,505,505,505,505,506,506,507,507,507,507,507,507,508,508,509,509,509,509,509,509,509,509,509,509,509,510,510,510,510,510,509,509,509,509,508,507,507,506,506,506,505,505,505,505,505,505,505,505,505,505,504,504,504,504,504,504,504,507,507,507,507,507,507,507,507,507,507,507,508,508,508,508,508,509,509,509,510,510,511,511,511,511,511,511,512,512,512,512,512,512,512,512,512,512,515,515,515,516,516,516,515,515,515,515,513,513,513,511,511,511,511,511,511,511,511,511,512,512,512,512,512,513,514,514,514,514,514,514,514,514,514,514,514,514,514,514,514,513,513,513,513,514,514,514,514,514,514,514,514,515,515,515,515,515,516,516,516,517,517,517,517,517,518,518,518,519,519,519,520,520,520,520,520,521,521,523,523,523,524,525,525,525,525,526,526,526,526,526,526,526,526,526,530,530,529,529,529,529,530,530,531,531,531,531,531,532,532,532,532,533,533,535,535,535,536,536,536,537,537,537,537,538,538,538,538,538,538,538,538,537,537,536,536,536,535,535,535,534,534,533,533,533,532,532,532,532,532,531,531,530,530,535,535,533,533,527,527,527,527,527,527,527,528,528,528,528,528,529,529,529,530,530,530,535,535,535,529,529,529,529,529,529,529,529,529,529,530,530,530,530,530,531,531,531,532,531,531,532,532,532,532,532,532,532,532,532,532,532,531,531,531,531,530,530,530,530,530,530,530,530,530,530,530,531,531,531,531,531,534,534,534,535,535,535,535,535,535,535,535,535,534,534,534,533,533,533,532,532,531,529,529,528,528,527,527,527,526,525,525,523,523,521,521,518,515,515,515,515,515,515,515,515,515,515,515,515,467,461,461,458,458,456,456,454,452,452,450,450,449,448,448,448,559,558,558,555,555,553,551,551,549,549,547,545,545,543,543,542,541,541,540,539,539,537,537,535,534,534,534,534,534,533,533,533,533,533,533,533,533,533,533,533,533,534,534,534,534,534,534,534,533,533,533,533,533,533,533,533,533,533,532,532,532,532,532,532,532,532,532,532,532,532,532,532,533,533,533,533,533,532,532,530,530,528,528,528,528,528,528,528,528,503,503,500,500,497,497,495,494,494,492,492,490,488,488,487,487,485,483,483,482,482,481,481,481,481,481,481,481,481,481,481,481,481,481,481,481,481,481,481,481,481,481,426,426,425,424,424,423,423,423,423,423,422,422,421,421,421,421,421,421,421,421,421,421,421,420,420,420,420,420,420,419,419,419,419,419,418,418,417,417,416,416,416,415,415,415,415,415,415,414,414,414,414,413,413,413,412,411,411,411,411,411,411,411,411,411,411,411,411,411,411,411,411,411,411,411
398,398,398,398,398,398,398,398,398,398,398,398,398,398,397,397,397,397,397,396,396,395,395,395,395,395,395,395,395,395,395,395,395,395,503,503,503,503,503,503,503,503,502,502,502,502,502,502,502,507,507,507,507,507,507,508,508,509,509,509,509,509,509,509,509,509,509,509,510,510,510,510,510,509,509,509,509,508,507,507,506,506,506,505,505,505,505,505,505,505,505,505,505,504,504,504,504,504,504,504,504,503,503,504,503,503,504,504,504,504,504,504,504,505,505,505,506,507,507,507,507,508,508,508,508,508,507,507,507,507,508,507,507,508,508,508,508,508,509,509,510,510,509,509,509,508,508,507,506,506,506,506,506,506,506,506,506,507,507,507,507,508,508,508,508,509,509,509,509,509,509,509,509,510,510,510,510,510,511,511,511,511,511,511,514,514,514,514,514,514,514,514,515,515,515,515,515,516,516,516,517,517,517,517,517,518,518,518,519,519,519,520,520,520,520,520,521,521,523,523,523,524,525,525,525,525,526,526,526,526,526,526,526,526,526,526,526,526,526,526,526,530,527,527,527,527,527,527,528,528,528,530,530,531,532,532,533,533,533,533,533,533,533,533,533,533,533,533,533,533,533,533,533,533,532,532,532,531,531,531,530,530,528,528,528,528,528,527,527,527,526,526,526,526,526,526,526,524,523,523,523,523,523,523,523,523,523,523,523,523,523,523,523,523,524,524,524,524,524,524,529,529,529,529,529,529,529,529,529,530,530,530,530,530,531,531,531,532,531,531,532,532,532,532,532,532,532,532,532,532,532,531,531,531,531,530,530,530,530,530,530,530,530,530,530,530,531,531,531,531,531,531,532,532,532,532,532,532,532,532,532,532,532,531,530,530,529,529,529,528,528,527,527,527,526,526,525,524,524,523,523,523,521,521,520,519,518,515,515,514,514,511,511,511,511,511,511,511,511,467,461,461,456,456,454,454,452,450,450,448,448,447,446,446,446,556,555,555,555,555,553,551,551,549,549,541,540,540,538,538,537,536,536,536,536,535,535,537,535,534,534,534,534,534,533,533,533,533,533,533,533,533,533,533,533,533,534,534,534,534,534,534,534,533,533,533,533,533,533,533,533,533,533,532,532,532,532,532,532,532,532,532,532,532,532,532,532,532,532,531,531,530,529,529,527,527,526,521,521,515,515,515,515,507,503,503,500,500,497,497,495,494,494,492,492,490,488,488,487,487,485,483,483,482,482,481,480,480,480,480,480,480,480,480,480,480,480,480,480,480,480,480,480,480,480,480,480,480,424,424,424,423,423,423,422,422,422,422,421,421,421,420,420,420,420,420,420,420,420,420,420,420,420,420,420,419,419,419,419,419,418,418,417,417,416,416,416,415,415,415,415,415,415,414,414,414,414,413,413,413,412,411,411,411,411,411,411,411,411,411,411,411,411,411,411,411,411,411,411,411
398,398,398,398,398,398,398,398,398,398,398,398,398,398,397,397,397,397,397,396,396,395,395,395,395,395,395,395,395,395,395,395,395,395,503,503,503,503,503,503,503,503,502,502,502,502,502,502,502,503,503,503,504,504,504,504,504,505,505,505,505,505,505,505,504,504,504,504,505,505,504,504,504,504,504,503,503,502,502,502,501,501,501,501,501,500,500,500,500,500,500,500,500,500,500,500,500,500,500,500,500,500,500,500,500,500,500,501,501,501,502,502,502,502,503,503,504,504,504,504,504,504,504,504,504,503,503,503,502,502,502,501,501,501,508,508,508,508,509,509,510,510,509,509,509,508,508,507,506,506,506,506,506,506,506,506,506,507,507,507,507,508,508,508,508,509,509,509,509,509,509,509,509,510,510,510,510,510,511,511,511,511,511,511,511,511,511,511,512,512,511,511,512,512,512,512,512,512,512,512,512,512,512,512,512,512,512,513,513,513,514,515,515,516,516,517,518,518,520,521,521,522,522,522,523,523,522,522,522,522,522,522,522,522,521,521,521,521,522,522,522,522,522,523,523,523,524,524,524,524,525,526,526,527,529,529,528,528,528,528,528,528,528,528,527,527,527,527,527,527,533,533,533,533,532,532,532,531,531,531,530,530,528,528,528,528,528,527,527,527,526,526,526,526,526,526,526,524,523,523,523,523,523,523,523,523,523,523,523,523,523,523,523,523,524,524,524,524,524,524,524,524,524,524,524,525,525,525,525,526,526,526,526,526,526,526,527,527,527,527,527,528,528,528,528,528,528,528,528,527,527,527,527,527,527,527,527,527,527,527,527,527,527,527,527,527,527,527,528,528,528,529,529,529,529,529,529,529,529,529,528,528,528,527,527,527,526,526,526,525,525,524,524,523,523,523,522,522,522,521,521,520,519,519,519,519,519,517,517,514,514,511,511,511,511,511,511,511,511,511,511,511,456,456,454,454,452,450,450,448,448,447,446,446,446,556,555,555,555,555,555,555,555,555,555,541,540,540,538,538,537,536,536,536,536,535,534,534,533,532,532,532,532,532,531,531,531,531,531,531,531,531,531,531,531,532,532,532,532,532,532,532,532,532,532,531,531,531,531,531,530,530,530,530,530,530,530,530,530,530,530,530,530,530,530,530,530,530,529,528,528,527,527,527,525,525,523,519,519,515,515,512,512,507,504,504,502,502,499,498,498,496,496,494,492,492,490,490,488,488,486,484,484,483,483,481,480,480,480,480,480,480,480,480,480,480,480,480,480,480,480,480,480,480,480,480,480,480,424,424,424,423,423,423,422,422,422,422,421,421,421,420,420,420,420,420,420,420,420,420,420,420,419,419,419,419,419,419,419,418,417,417,416,416,416,415,415,415,415,415,414,414,414,414,414,413,413,413,413,413,412,411,411,411,411,410,410,410,410,410,410,410,410,410,410,410,410,410,410,410
397,397,397,397,397,397,397,397,397,397,396,396,396,396,396,395,395,395,395,394,394,394,394,394,394,394,394,394,394,394,394,394,394,394,501,500,500,500,499,499,499,499,498,498,498,497,497,497,497,498,498,499,499,499,499,499,499,500,500,500,500,500,499,499,499,499,499,499,499,499,499,499,499,499,499,498,498,497,497,497,496,496,496,501,501,500,500,500,500,500,500,500,500,500,500,500,500,500,500,500,500,500,500,500,500,500,500,501,501,501,502,502,502,502,503,503,504,504,504,504,504,504,504,504,504,503,503,503,502,502,502,501,501,501,501,501,501,501,502,502,502,502,502,509,501,501,501,501,501,500,500,500,500,501,501,501,502,502,502,503,503,503,504,504,504,504,504,505,505,505,506,506,506,507,507,507,507,507,508,508,508,509,509,509,509,509,509,509,509,509,509,509,509,509,509,509,509,509,509,509,508,508,508,508,508,509,509,509,510,510,510,510,512,513,513,514,515,515,517,521,521,522,522,522,523,523,522,522,522,522,522,522,522,522,521,521,521,521,522,522,522,522,522,523,523,523,524,524,524,524,525,526,526,527,529,529,528,528,528,528,528,528,528,528,527,527,527,527,527,527,527,527,527,527,527,527,526,526,526,525,524,524,523,523,523,523,523,522,522,522,521,521,521,521,521,521,521,519,519,519,519,519,519,519,519,519,519,519,519,519,519,519,519,519,519,519,519,519,519,519,519,519,520,520,520,521,521,521,521,521,521,521,521,521,522,522,522,522,523,523,523,523,523,523,523,523,523,524,523,523,523,523,523,523,523,527,527,527,527,527,527,527,527,527,527,527,527,527,528,528,528,529,529,529,529,529,529,529,529,529,528,528,528,527,527,527,526,526,526,525,525,524,524,523,523,523,522,522,522,521,521,520,519,519,519,518,518,516,516,514,514,511,511,511,511,511,511,511,511,511,511,511,456,456,454,454,450,448,448,446,446,445,444,444,443,443,443,555,555,555,540,540,540,540,540,541,540,533,532,532,532,531,531,531,531,531,531,531,530,530,530,529,529,529,529,529,529,529,529,529,529,529,529,529,529,529,529,529,529,528,528,528,527,527,527,527,527,527,527,527,527,530,530,530,530,530,530,530,530,530,530,530,530,530,530,530,530,530,529,528,528,527,527,527,525,525,523,519,519,515,515,512,512,512,506,506,506,506,502,500,500,498,498,496,495,495,492,492,491,489,486,484,484,483,483,481,480,480,480,480,480,480,480,480,480,480,480,480,480,480,480,480,480,480,480,480,425,425,424,424,424,423,423,423,422,422,421,421,421,421,421,420,420,420,420,420,420,420,420,419,419,419,419,419,419,419,419,418,418,417,417,417,416,416,415,415,415,414,414,414,414,414,414,413,413,413,413,413,412,412,411,411,411,410,410,410,410,410,410,410,410,410,410,410,410,410,410,410,410,410
395,395,395,394,394,394,394,394,394,394,394,394,394,394,394,394,393,393,393,393,393,393,393,393,393,393,392,392,393,393,393,393,393,393,501,500,500,500,499,499,499,499,498,498,498,497,497,497,497,498,498,499,499,499,499,499,499,500,500,500,500,500,499,499,499,499,499,499,499,499,499,499,499,499,499,498,498,497,497,497,496,496,496,496,496,496,496,495,495,496,496,496,496,496,496,496,496,497,497,497,497,497,497,497,497,497,497,498,499,499,499,500,500,500,500,500,501,501,501,501,501,501,501,500,500,499,498,498,497,497,497,497,497,496,495,495,495,495,495,495,496,496,496,496,496,496,496,496,496,496,496,496,496,497,497,497,497,497,498,499,499,499,499,499,500,500,500,501,501,505,506,506,506,507,507,507,507,507,508,508,508,509,509,509,509,509,509,509,509,509,509,509,509,509,509,509,509,509,509,509,508,508,508,508,508,509,509,509,510,510,510,510,512,513,513,514,515,515,517,518,518,519,519,519,519,519,518,518,517,517,517,517,517,517,517,517,517,517,517,517,518,518,519,519,519,520,520,520,520,520,521,522,522,523,524,524,524,523,523,523,523,523,523,523,523,522,522,522,521,521,521,521,521,520,520,520,519,519,519,519,519,518,518,518,517,517,517,516,516,515,515,515,515,515,515,515,515,515,515,515,515,515,515,516,519,519,519,519,519,519,519,519,519,519,519,519,519,519,519,519,519,519,520,520,520,521,521,521,521,521,521,521,521,521,522,522,522,522,523,523,523,523,523,523,523,523,523,524,523,523,523,523,523,523,523,523,523,523,523,523,523,524,524,524,524,524,525,525,526,526,526,526,526,527,527,526,526,526,525,525,525,525,525,524,523,523,523,523,523,523,523,522,522,521,520,520,520,519,519,519,519,518,518,518,517,517,516,516,516,515,514,514,514,514,514,514,514,514,514,514,514,514,514,514,514,514,447,447,445,444,444,443,442,442,441,441,441,441,441,441,540,540,540,540,540,540,540,533,532,532,532,531,531,531,531,531,531,531,530,530,530,529,529,529,529,529,529,529,529,529,529,529,529,529,529,529,529,529,529,528,528,528,527,527,527,527,527,527,527,527,526,526,526,526,527,527,527,527,527,527,527,527,527,527,527,527,527,527,527,526,526,525,524,524,523,523,521,518,518,515,515,512,512,509,506,506,505,505,502,500,500,498,498,496,495,495,492,492,491,489,489,487,487,486,484,484,483,483,483,483,483,483,483,483,483,483,483,483,483,483,483,483,483,483,483,483,425,425,424,423,423,423,423,422,422,422,421,421,421,421,421,420,420,420,420,420,420,420,420,419,419,419,419,419,419,419,419,418,418,417,417,417,416,416,415,415,415,414,414,414,414,414,414,413,413,413,413,413,412,412,411,411,411,410,410,410,409,409,409,409,409,409,409,409,409,409,409,409,409,409
395,395,395,394,394,394,394,394,394,394,394,394,394,394,394,394,393,393,393,393,393,393,393,393,393,393,392,392,393,393,393,393,393,393,499,498,498,497,497,497,496,496,495,494,494,493,493,493,493,493,493,494,494,494,494,494,494,495,495,495,495,494,494,493,493,493,493,493,493,493,493,493,493,493,493,493,493,493,493,492,491,491,491,491,491,491,491,491,491,491,491,491,492,492,492,492,493,493,493,493,494,494,494,494,495,495,495,495,497,497,497,497,497,497,497,497,498,498,501,501,501,501,501,500,500,499,498,498,497,497,497,497,497,496,495,495,495,495,495,495,496,496,496,496,496,496,496,496,496,496,496,496,496,497,497,497,497,497,498,499,499,499,499,499,500,500,500,501,501,502,502,502,503,504,504,504,504,505,506,506,506,507,507,507,507,508,508,508,508,508,508,508,507,507,507,507,507,507,506,506,505,504,504,504,504,505,505,506,506,506,508,508,509,510,510,511,513,513,514,515,515,515,515,514,514,514,513,513,512,512,512,512,512,512,512,512,512,512,512,512,513,513,514,515,515,515,515,516,516,516,516,517,517,523,524,524,524,523,523,523,523,523,523,523,523,522,522,522,521,521,521,521,521,520,520,520,519,519,519,519,519,518,518,518,517,517,517,516,516,515,515,515,515,515,515,515,515,515,515,515,515,515,515,516,516,516,516,516,515,515,515,515,515,515,515,515,515,515,515,515,515,515,515,516,516,516,516,516,516,516,516,516,516,516,516,516,517,517,517,518,518,518,518,518,519,519,519,519,519,519,519,519,520,520,520,521,521,521,521,521,521,521,521,521,521,522,522,522,522,523,523,523,523,523,523,523,522,522,522,522,522,522,522,521,521,520,520,520,520,523,523,522,522,521,520,520,520,519,519,519,519,518,518,518,517,517,516,516,516,515,514,514,514,514,514,514,514,514,514,514,514,514,514,514,514,514,447,447,445,444,444,443,442,442,441,441,441,441,441,441,540,540,531,530,530,528,528,528,528,528,528,528,528,528,529,529,528,528,528,528,527,527,527,527,527,527,527,527,527,527,527,527,526,526,526,527,527,526,526,524,524,524,523,523,522,522,522,522,522,522,521,521,521,521,521,521,522,522,522,523,523,523,523,523,524,524,524,524,523,523,523,523,523,521,520,520,519,518,516,514,514,512,512,509,507,507,505,505,504,502,502,501,501,499,499,499,499,499,499,499,499,499,499,499,499,499,499,499,499,499,499,499,499,499,499,499,499,499,499,499,499,499,499,499,499,499,425,425,424,423,423,423,423,422,422,422,421,421,421,420,420,420,420,420,420,420,420,419,419,419,419,419,419,419,419,418,418,418,418,417,416,416,415,415,415,414,414,414,414,414,413,413,413,413,413,413,413,413,412,412,411,410,410,410,410,409,408,408,408,408,408,408,408,408,408,408,408,408,408,408
393,393,392,392,392,392,392,392,392,392,392,392,392,391,391,391,391,391,391,392,392,391,391,391,392,392,392,392,391,391,392,391,391,391,391,497,497,495,495,494,493,493,492,492,491,491,491,491,491,491,491,491,491,490,490,490,490,490,490,490,490,489,489,489,488,488,488,493,493,493,493,493,493,493,493,493,493,493,493,492,491,491,491,491,491,491,491,491,491,491,491,491,492,492,492,492,493,493,493,493,494,494,494,494,495,495,495,495,497,497,497,497,497,497,497,497,498,498,498,498,498,498,497,497,497,495,495,495,494,494,493,493,493,493,493,492,492,492,492,493,493,493,493,493,493,493,493,493,493,493,493,493,493,493,493,493,494,494,494,495,495,495,495,496,497,497,497,497,497,498,499,499,500,500,501,502,502,503,504,504,504,505,505,506,506,506,506,506,506,506,506,506,505,505,505,504,504,504,503,503,503,503,504,504,504,505,505,506,506,506,508,508,509,510,510,511,513,513,514,515,515,515,515,514,514,514,513,513,512,512,512,512,512,512,512,512,512,512,512,512,513,513,514,515,515,515,515,516,516,516,516,517,517,518,519,518,518,518,523,523,523,523,523,517,517,516,515,515,515,515,515,515,515,515,520,520,513,513,513,512,512,512,512,512,512,512,511,511,511,510,510,509,509,510,510,510,511,511,511,512,512,512,512,512,512,512,513,513,512,512,512,511,511,511,511,512,512,512,512,512,512,512,512,512,512,512,512,512,512,511,511,511,511,511,511,511,512,512,517,518,518,518,518,518,519,519,519,519,519,519,519,519,520,520,520,521,521,521,521,521,521,521,521,521,521,522,522,522,522,523,523,523,523,523,523,523,522,522,522,522,522,522,522,521,521,520,520,520,520,519,519,519,519,518,518,518,518,517,517,517,517,516,516,516,516,516,515,515,515,515,513,513,513,513,513,513,513,513,513,513,513,513,513,513,513,513,447,447,442,442,442,441,441,441,440,440,440,440,440,526,524,524,521,521,521,520,520,520,520,520,522,523,523,523,524,524,525,526,526,526,526,525,525,525,525,525,524,524,524,524,524,523,523,526,526,527,527,526,526,524,524,524,523,523,522,522,522,522,522,522,521,521,521,521,521,521,522,522,522,523,523,523,523,523,524,524,524,524,523,523,523,523,523,521,520,520,519,519,516,514,514,512,512,509,507,507,505,505,504,502,502,501,501,499,499,499,499,499,499,499,499,499,499,499,499,499,499,499,499,499,499,499,499,499,499,499,499,499,499,499,499,425,425,425,425,425,425,425,424,423,423,423,423,422,421,421,421,421,420,420,420,419,419,419,419,419,419,419,419,419,419,419,419,419,418,418,418,417,417,417,416,416,415,415,414,414,414,413,413,414,413,413,413,413,413,413,413,413,412,412,411,410,410,410,410,409,408,408,408,408,408,408,408,408,408,408,408,408,408,408
390,390,390,390,390,389,389,389,389,389,389,389,389,389,389,389,391,391,391,392,392,391,391,391,392,392,392,392,391,391,392,391,391,391,391,497,497,495,495,494,493,493,492,492,491,491,491,491,491,491,491,491,491,490,490,490,490,490,490,490,490,489,489,489,488,488,488,488,488,488,488,488,488,488,488,488,488,488,488,487,487,487,487,487,487,487,487,486,486,487,487,487,487,487,488,488,489,489,489,489,490,490,491,491,491,492,492,492,493,493,494,494,494,495,495,495,495,495,495,495,495,495,495,493,493,493,493,492,491,491,491,490,490,490,490,490,490,490,490,490,490,490,490,490,490,490,490,489,489,489,489,489,493,493,493,493,494,494,494,495,495,495,495,496,497,497,497,497,497,498,499,499,500,500,501,502,502,503,504,504,504,505,505,506,506,506,506,506,506,506,506,506,505,505,505,504,504,504,503,503,503,502,502,502,502,502,502,502,502,503,504,504,505,507,507,508,509,509,510,510,510,511,510,509,509,509,509,508,507,507,507,507,512,507,507,507,507,507,507,508,509,509,510,510,511,512,512,512,513,513,513,513,513,514,514,518,518,518,518,518,518,518,511,511,511,510,510,510,509,509,509,509,515,515,515,515,507,507,507,507,507,506,506,506,507,507,507,511,511,510,510,509,509,510,510,510,511,511,511,512,512,512,512,512,512,512,513,513,512,512,512,511,511,511,511,512,512,512,512,512,512,512,512,512,512,512,512,512,512,511,511,511,511,511,511,511,512,512,512,512,512,512,512,512,513,513,513,514,514,514,514,515,516,516,516,517,517,517,518,518,518,518,518,519,519,519,519,518,518,518,518,518,518,518,518,518,518,517,517,517,517,517,517,517,517,517,517,517,517,517,517,516,516,516,516,516,515,515,515,515,515,515,515,515,515,515,514,514,514,514,513,513,513,514,513,513,513,513,513,513,513,513,513,513,513,513,513,513,442,442,442,441,441,441,440,440,440,440,440,526,524,524,521,521,521,520,520,520,520,520,522,523,523,523,524,524,525,526,526,526,526,525,525,525,525,525,524,524,524,524,524,523,523,523,523,523,523,521,521,520,520,519,519,519,518,517,517,517,517,517,516,516,516,516,516,516,517,517,518,518,518,518,519,519,519,519,519,519,519,519,519,518,518,517,517,517,516,516,515,513,513,512,512,510,509,509,507,506,505,504,504,503,503,504,504,504,504,499,499,499,499,499,499,499,499,499,499,499,499,499,499,499,499,499,499,499,499,499,499,499,499,425,425,425,425,425,425,425,424,423,423,423,423,422,421,421,421,421,420,420,420,419,419,419,419,419,419,419,419,419,419,419,419,419,418,418,418,417,417,417,416,416,415,415,414,414,414,413,413,413,413,413,413,413,413,413,412,412,412,412,411,410,410,410,410,409,408,408,408,408,408,408,408,408,408,408,408,408,408,408
390,390,390,390,390,389,389,389,389,389,389,389,389,389,389,389,389,389,389,389,389,389,389,389,389,389,389,390,390,389,389,389,388,388,388,388,387,387,493,493,491,491,490,490,489,488,488,488,488,488,488,489,488,487,487,486,486,486,486,486,485,484,484,484,484,483,483,483,483,483,483,483,483,483,483,483,483,483,483,483,483,483,483,483,483,483,483,482,482,482,483,483,483,483,484,484,484,485,485,485,485,490,491,491,491,492,492,492,493,493,494,494,494,495,495,495,495,495,495,495,495,495,495,493,493,493,493,492,491,491,491,490,490,490,490,490,490,490,490,490,490,490,490,490,490,490,490,489,489,489,489,489,489,490,490,490,491,491,491,491,491,492,492,493,494,494,495,495,495,496,496,497,499,499,499,500,500,502,502,502,503,504,504,504,504,504,505,505,504,504,504,504,504,503,503,502,502,502,501,501,499,499,499,499,499,499,499,499,499,500,501,501,502,503,503,504,504,506,507,507,507,507,506,506,506,505,505,503,502,502,502,502,502,502,502,502,507,507,507,508,509,509,510,510,511,512,512,512,513,513,513,513,513,514,514,514,514,514,514,514,514,514,511,511,511,510,510,510,509,509,509,509,509,509,509,509,507,507,507,507,507,506,506,506,507,507,507,507,507,506,506,506,506,507,507,507,508,508,508,508,509,509,509,509,509,509,510,510,510,510,509,509,509,509,509,509,510,510,510,509,509,509,509,509,509,509,508,507,507,507,507,507,507,507,506,506,506,506,506,506,507,512,512,508,508,508,509,509,509,510,510,512,513,513,513,514,514,514,514,514,514,514,514,514,514,514,513,513,513,512,512,512,512,518,518,518,518,517,517,517,517,517,517,517,517,517,517,517,517,517,517,516,516,516,516,516,515,515,515,515,515,515,515,515,515,515,514,514,514,514,514,514,514,514,513,513,513,513,513,513,513,513,513,513,513,513,513,513,439,439,439,439,439,438,438,440,440,440,440,526,524,524,515,515,515,515,515,515,516,516,517,518,518,518,518,518,519,519,519,520,520,519,519,519,519,519,519,519,519,519,519,518,518,518,518,518,518,517,517,516,516,515,514,514,513,513,512,512,512,511,511,511,511,511,511,512,512,512,513,513,513,513,513,513,513,513,514,519,519,519,519,518,518,517,517,517,516,516,515,513,513,512,512,510,509,509,507,506,506,505,505,504,504,504,504,504,504,499,499,499,499,499,499,499,499,499,499,499,499,499,499,499,499,499,499,499,499,499,499,499,499,425,425,425,425,425,425,425,424,423,423,423,423,422,421,421,421,421,420,419,419,419,419,419,419,419,419,419,419,418,418,418,418,418,418,417,417,417,417,416,416,416,415,415,414,414,414,413,413,413,413,413,413,413,413,413,412,412,412,412,411,410,410,410,410,408,408,408,408,408,408,408,408,408,408,408,408,408,408,408
388,388,388,388,387,387,387,387,387,387,387,387,387,387,387,387,387,387,387,387,387,387,387,387,388,388,387,387,387,387,387,386,386,386,385,385,384,384,383,383,488,488,487,487,486,485,485,485,485,485,485,489,488,487,487,486,486,486,486,486,485,484,484,484,484,483,483,483,483,483,483,483,483,483,483,483,483,483,483,483,483,483,483,483,483,483,483,482,482,482,483,483,483,483,484,484,484,485,485,485,485,486,486,486,487,487,487,488,488,488,489,489,489,490,490,491,491,491,491,491,491,491,491,490,490,489,489,488,488,488,488,488,487,487,487,487,486,486,486,487,490,487,487,487,487,488,487,487,487,487,487,487,487,488,488,488,488,488,489,489,490,491,491,492,493,493,494,494,494,495,495,496,497,497,498,499,499,500,501,501,502,502,502,503,503,503,505,505,504,504,504,504,504,503,503,502,502,502,501,501,499,499,499,499,499,499,499,499,499,500,501,501,502,503,503,504,504,506,507,507,507,507,506,506,506,505,505,503,502,502,502,502,502,502,502,502,503,503,503,504,504,504,506,506,507,507,507,507,507,507,507,507,507,507,507,506,506,506,506,506,506,506,505,505,504,504,504,504,504,504,504,504,503,503,503,502,502,502,501,501,501,501,501,501,502,502,502,502,502,502,506,506,503,503,503,504,504,504,504,504,505,505,505,506,506,506,507,507,507,507,506,506,506,505,505,505,507,507,507,506,506,506,509,509,509,509,508,507,507,507,507,507,507,507,506,506,506,506,506,506,507,507,507,508,508,508,509,509,509,510,510,512,513,513,513,514,514,514,514,514,514,514,514,514,514,514,513,513,513,512,512,512,512,512,512,512,512,512,512,512,512,512,512,513,513,513,513,513,513,514,513,513,514,513,513,514,513,513,513,513,513,513,513,513,513,513,513,513,513,513,513,513,513,513,513,513,513,513,513,513,513,513,513,513,513,513,513,513,439,439,439,439,439,438,438,438,438,438,438,438,438,510,510,511,510,510,510,510,510,510,510,510,510,510,510,511,512,512,519,520,520,519,519,519,519,519,519,519,519,519,519,518,518,518,518,518,518,517,517,516,516,515,514,514,513,513,512,512,512,511,511,511,511,511,511,512,512,512,513,513,513,513,513,513,513,513,514,514,514,514,514,514,518,517,513,513,512,512,512,511,511,510,510,509,508,508,507,506,506,505,505,504,504,504,503,503,502,499,499,499,499,498,498,498,498,498,498,498,498,498,498,498,498,498,498,498,498,498,498,498,498,425,425,425,425,425,425,425,424,423,423,422,422,422,421,421,420,420,420,419,419,419,418,418,418,419,418,418,418,418,418,418,418,418,418,417,417,417,417,416,416,416,415,415,414,414,414,413,413,413,413,413,413,413,413,413,412,412,412,412,411,410,410,410,410,408,408,408,408,408,408,408,408,408,408,408,408,408,408,408
388,388,388,388,387,387,387,387,387,387,387,387,387,387,387,387,387,387,387,387,387,387,387,387,388,388,387,387,387,387,387,386,386,386,385,385,384,384,383,383,488,488,487,487,486,485,485,485,485,485,485,485,485,483,483,483,483,482,481,481,481,480,480,480,480,479,479,479,479,479,479,479,479,479,479,479,478,478,478,479,479,479,479,479,479,479,479,479,479,479,479,480,480,480,480,480,481,481,481,481,481,482,482,482,482,482,483,483,483,483,484,484,484,485,485,485,485,486,486,486,486,486,486,486,485,485,485,485,485,485,484,484,484,484,484,484,486,486,486,487,487,487,487,487,487,488,487,487,487,487,487,487,487,488,488,488,488,488,489,489,490,491,491,492,493,493,494,494,494,495,495,496,497,497,498,499,499,500,501,501,502,502,502,503,503,503,504,503,502,502,502,502,501,500,500,499,499,498,497,497,496,496,496,496,496,496,496,497,497,497,498,498,499,499,499,500,500,501,502,502,502,502,500,500,500,499,499,498,498,497,497,497,497,497,498,498,498,498,499,499,499,500,501,501,502,502,502,502,501,501,501,500,500,500,499,499,498,497,497,497,497,497,497,497,497,497,497,497,497,497,497,504,503,503,503,502,502,502,501,501,501,501,501,501,502,502,502,502,502,502,502,502,503,503,503,504,504,504,504,504,505,505,505,506,506,506,507,507,507,507,506,506,506,505,505,505,507,507,507,506,506,505,505,505,504,504,504,504,503,503,503,502,502,502,502,502,502,502,502,502,503,504,504,504,504,504,505,505,507,507,507,509,510,510,511,511,511,511,511,510,510,510,510,510,509,509,508,508,513,512,512,512,507,507,506,506,507,507,507,506,506,507,507,507,507,507,508,508,508,509,509,509,509,509,509,510,510,510,510,511,511,511,511,511,511,512,512,513,513,513,513,513,513,513,513,513,513,513,513,513,513,513,513,513,513,513,513,513,513,513,513,513,513,513,513,513,513,513,513,513,513,510,510,511,510,510,510,510,510,510,510,510,510,510,510,511,512,512,512,512,512,512,512,512,513,513,514,514,514,514,513,513,513,513,513,513,513,513,512,511,511,510,510,509,509,509,508,508,508,507,507,507,507,507,507,507,508,508,508,508,508,508,508,508,508,508,509,509,509,509,509,509,509,509,509,509,509,509,509,508,508,508,508,507,506,506,506,506,504,504,505,504,504,504,503,503,502,501,501,499,499,498,498,498,498,498,498,498,498,498,498,498,498,498,498,498,498,498,498,498,498,425,425,425,425,425,425,425,424,423,423,422,422,422,421,421,420,420,420,419,419,419,418,418,418,419,418,418,418,418,418,418,417,417,417,417,417,416,416,416,415,415,415,415,414,414,414,413,413,413,413,413,413,413,413,413,412,412,411,411,411,410,410,408,408,407,406,406,405,405,405,405,405,405,405,405,405,405,405,405
386,386,385,385,385,385,385,385,385,385,385,385,385,385,385,385,385,385,385,385,385,385,385,385,385,385,385,385,385,385,384,384,384,383,382,382,382,382,380,379,379,378,378,378,483,482,482,482,482,482,482,482,481,481,483,483,483,482,478,478,478,478,477,477,477,476,476,476,476,476,475,475,476,476,475,475,475,476,476,476,476,476,476,476,476,479,479,479,479,479,479,480,480,480,480,480,481,481,481,481,481,482,482,482,482,482,483,483,483,483,484,484,484,485,485,485,485,486,486,486,486,486,486,486,485,485,485,485,485,485,484,484,484,484,484,484,484,484,484,484,484,485,486,485,485,486,485,485,485,485,485,485,486,486,486,487,487,487,488,488,489,490,490,491,492,492,493,493,493,494,494,495,497,497,497,498,498,499,500,500,501,502,502,502,502,502,502,501,501,500,499,499,498,497,497,496,496,495,494,494,493,493,493,493,493,493,493,493,493,494,494,495,495,495,496,497,497,497,497,497,502,502,500,500,500,499,499,498,498,497,497,497,497,497,498,498,498,498,499,499,499,500,501,501,502,502,502,502,501,501,501,500,500,500,499,499,498,497,497,497,497,497,497,497,497,497,497,497,497,497,497,497,497,497,497,496,496,496,496,496,496,496,496,496,497,497,497,498,498,498,498,498,498,498,498,499,499,500,500,500,501,501,501,502,502,502,503,502,502,502,501,501,501,501,501,501,502,502,502,502,501,500,500,500,499,499,499,499,499,498,498,498,498,498,497,497,497,497,497,497,498,499,499,499,499,500,502,502,502,503,503,505,507,507,507,507,511,511,511,510,510,510,510,510,509,509,508,508,508,508,508,508,507,507,506,506,507,507,507,506,506,507,507,507,507,507,508,508,508,509,509,509,509,509,509,510,510,510,510,511,511,511,511,511,511,512,512,512,512,512,512,512,512,512,512,512,512,512,512,512,512,512,512,512,512,512,512,512,512,512,512,512,512,512,512,512,512,512,512,512,512,507,507,507,506,506,506,504,504,504,504,504,503,503,503,511,512,512,512,512,506,506,506,512,513,508,508,508,508,509,509,509,509,509,509,509,509,509,508,507,507,507,507,506,505,505,505,504,504,504,504,504,507,507,507,507,508,508,508,508,508,508,508,508,508,508,509,509,509,509,509,509,509,509,509,509,509,509,509,508,508,508,508,507,506,506,506,506,504,504,505,504,504,504,504,504,503,502,502,499,499,498,498,498,498,498,498,498,498,498,498,498,498,498,498,498,498,498,498,498,498,424,424,424,424,424,424,424,424,423,423,422,422,422,421,421,420,420,419,419,419,418,418,418,418,418,418,417,417,417,417,417,417,417,417,416,416,416,416,415,415,415,415,414,414,413,413,413,413,413,413,413,413,412,412,412,411,411,411,411,411,409,409,408,408,407,406,406,405,405,405,405,405,405,405,405,405,405,405,405
384,383,383,383,383,383,383,383,383,382,382,383,383,383,383,382,382,382,382,382,382,382,382,382,382,382,382,382,382,382,382,381,381,381,382,382,382,382,380,379,379,378,378,378,483,482,482,482,482,482,482,482,481,481,481,481,481,481,478,478,478,478,477,477,477,476,476,476,476,476,475,475,476,476,475,475,475,476,476,476,476,476,476,476,476,476,476,476,476,476,476,477,477,477,477,477,477,477,477,478,478,478,478,478,478,478,479,479,479,479,479,479,480,480,480,480,480,481,481,481,481,481,481,481,481,481,481,481,481,481,482,482,482,482,483,483,483,483,483,484,484,484,484,484,484,484,484,484,484,484,484,484,485,486,486,486,487,487,488,488,489,489,489,491,492,492,492,493,493,494,494,495,497,497,497,498,498,499,500,500,501,502,502,502,502,502,502,501,501,500,499,499,498,497,497,496,496,495,494,494,493,493,493,493,493,493,493,493,493,494,494,495,495,495,496,497,497,497,497,497,497,497,496,496,495,495,495,494,494,493,493,493,493,494,495,495,495,495,495,495,495,496,497,497,497,497,497,497,496,495,495,494,494,494,493,493,491,491,491,491,491,490,490,490,490,491,491,491,491,491,492,492,492,492,491,491,492,492,492,492,492,492,492,493,493,493,493,493,493,493,493,493,493,493,494,495,495,495,495,495,496,496,497,497,497,502,503,502,502,502,501,501,501,501,501,501,502,502,502,502,501,500,500,500,499,499,499,499,499,498,498,498,498,498,497,497,497,497,497,497,498,499,499,499,499,500,502,502,502,503,503,505,507,507,507,507,507,507,507,506,506,505,505,504,504,509,502,502,501,501,501,501,501,501,501,501,501,502,502,502,502,502,502,502,502,503,503,503,503,504,504,504,504,504,505,505,505,506,506,507,507,507,507,507,507,507,507,507,508,508,508,508,508,509,509,509,509,509,509,509,509,509,509,509,509,509,509,509,509,509,509,509,509,509,509,509,509,509,509,509,509,507,507,507,506,506,506,504,504,504,504,504,503,503,503,503,503,503,503,503,506,506,506,506,506,508,508,508,508,509,509,509,509,509,509,509,509,509,508,507,507,507,507,506,505,505,505,504,504,504,504,504,504,504,504,504,504,504,505,505,505,505,505,505,505,505,505,505,505,505,505,506,506,505,505,505,505,505,505,505,506,505,505,504,504,504,503,503,502,502,502,502,502,502,501,501,500,500,502,502,502,502,502,502,502,502,502,502,502,502,502,502,502,502,502,502,502,502,502,502,423,423,423,423,424,424,424,424,424,423,423,422,422,422,421,421,420,420,419,419,419,418,418,418,418,418,418,417,417,417,417,417,417,417,417,416,416,416,416,415,415,415,415,414,414,413,413,413,413,413,413,413,413,412,412,412,411,411,411,411,411,409,409,408,408,406,406,406,405,405,405,405,405,405,405,405,405,405,405,405
384,383,383,383,383,383,383,383,383,382,382,383,383,383,383,382,382,382,382,382,382,382,382,382,382,382,382,382,382,382,382,381,381,381,381,380,379,379,378,378,378,376,376,376,376,374,374,480,482,482,482,482,481,481,481,481,481,481,476,476,475,475,475,475,475,474,474,474,473,473,473,473,473,473,473,473,473,473,473,473,473,473,473,473,473,473,473,473,473,473,473,473,473,474,474,474,474,474,474,474,474,478,475,475,475,475,475,475,475,475,475,475,475,475,475,475,475,476,476,481,481,481,481,481,481,481,481,481,481,481,482,482,482,482,483,483,483,483,483,484,484,484,484,484,484,484,484,484,484,484,484,484,485,486,486,486,487,487,488,488,489,489,489,491,492,492,492,493,493,494,494,495,496,496,497,497,497,499,499,499,500,500,500,500,500,499,499,499,499,497,496,496,495,495,493,493,493,492,491,491,491,491,490,490,490,490,490,491,491,492,492,492,493,493,493,493,493,493,493,493,493,492,491,491,491,491,491,490,490,490,490,491,491,491,491,491,491,491,491,491,491,491,491,492,492,492,491,491,491,495,490,489,489,489,493,493,491,491,491,491,491,490,490,490,490,491,491,491,491,491,492,492,492,492,491,491,492,492,492,492,492,492,492,493,493,493,493,493,493,493,493,493,493,493,494,495,495,495,495,495,496,496,497,497,497,497,498,498,498,497,496,496,496,496,496,496,496,496,496,496,496,495,495,495,495,495,495,495,494,493,493,493,493,493,493,493,493,493,494,494,495,495,495,496,496,496,497,497,497,498,498,500,500,501,502,501,501,501,501,501,500,499,499,499,497,497,496,496,496,496,496,495,495,495,496,496,496,496,497,497,497,498,498,498,498,498,499,499,499,504,504,504,504,504,505,505,505,506,506,507,507,507,507,507,507,507,507,507,508,508,508,508,508,509,509,509,509,509,509,509,509,509,509,509,509,509,509,509,509,509,509,509,509,509,509,509,509,509,509,509,509,503,503,502,502,506,506,504,499,498,498,497,497,497,497,497,497,497,497,497,506,506,506,506,506,508,508,503,503,503,503,504,504,504,504,504,504,504,504,503,503,503,503,502,502,502,502,502,501,501,501,501,501,501,501,501,501,502,502,502,501,501,501,502,501,501,502,502,502,502,502,502,502,502,502,502,503,503,503,503,503,502,502,502,502,504,503,503,502,502,502,502,502,502,501,501,500,500,500,500,500,500,500,500,500,500,500,500,500,500,500,500,500,500,500,500,500,500,500,500,423,423,423,423,424,424,424,424,424,423,423,423,423,422,421,421,420,420,419,419,419,418,418,418,418,418,417,417,417,417,417,417,417,417,416,416,416,415,415,415,415,415,414,414,414,413,413,413,413,413,412,412,412,412,412,411,411,411,411,411,411,409,409,408,408,406,406,406,406,406,406,406,406,406,406,406,406,406,406,406
381,381,381,381,381,381,381,381,381,381,381,381,381,381,381,381,381,381,381,380,380,380,380,380,380,380,380,380,380,380,379,379,379,378,378,378,377,377,377,377,376,375,375,375,376,373,373,480,480,480,480,480,480,480,480,480,480,480,476,474,474,474,474,473,473,472,472,472,473,473,473,473,473,473,473,473,473,473,473,473,473,473,473,473,473,473,473,473,473,473,473,473,473,474,474,474,474,474,474,474,474,474,475,475,475,475,475,475,475,475,475,475,475,475,475,475,475,476,476,476,476,476,476,476,476,477,478,478,478,478,479,480,480,480,481,481,482,483,483,483,483,483,483,483,483,483,483,483,483,483,484,484,484,485,485,486,487,487,488,488,489,489,489,491,492,492,492,493,493,494,494,495,496,496,497,497,497,498,498,498,499,499,498,498,497,496,496,495,495,493,492,492,491,491,490,489,489,489,489,488,488,488,488,490,490,490,490,491,491,492,492,492,493,493,493,493,493,493,493,493,493,492,491,491,491,491,491,490,490,490,490,491,491,491,491,491,491,491,491,491,491,491,491,492,492,492,491,491,491,491,490,489,489,489,488,488,487,487,487,487,487,486,486,486,487,488,488,488,489,489,489,489,489,489,489,489,490,490,490,490,490,490,490,490,491,490,490,490,490,490,490,489,489,489,489,490,490,490,490,490,491,491,491,497,491,491,491,493,493,491,491,491,491,491,491,491,491,491,491,496,496,495,495,490,490,490,490,490,489,489,489,489,489,489,489,489,489,489,489,494,495,495,495,496,496,496,497,497,497,498,498,500,500,501,502,501,501,501,501,501,500,499,499,499,497,497,496,496,496,496,496,495,495,495,496,496,496,496,497,497,497,498,498,498,498,498,499,499,499,499,499,499,499,500,500,500,501,501,501,502,502,502,503,503,503,503,503,503,504,504,504,504,504,504,504,504,504,504,504,504,504,504,504,504,504,504,504,504,504,504,504,504,504,504,504,504,504,504,504,504,504,503,503,502,502,502,494,494,494,498,498,492,492,491,491,492,492,492,492,492,493,493,494,494,495,495,496,496,497,498,498,498,498,499,504,504,504,504,504,503,503,503,503,502,502,502,502,502,501,501,501,501,501,501,501,501,501,502,502,502,501,501,501,502,501,501,502,502,502,502,502,502,502,502,502,502,503,503,503,503,503,502,502,502,501,501,500,500,499,499,499,499,498,498,497,497,496,496,496,496,496,496,496,496,496,496,496,496,496,496,496,496,496,496,496,496,496,496,422,422,422,423,423,423,424,424,424,424,423,423,423,422,422,421,421,421,420,420,419,419,419,418,417,417,417,417,417,417,417,416,416,416,416,416,416,415,415,415,415,415,414,414,414,414,413,413,413,412,412,413,412,412,412,412,412,411,411,411,411,411,411,411,411,411,411,411,411,411,411,411,411,411,411,411,411,411,411,411,411,411
